# .PCD v0.7 - Point Cloud Data file format
VERSION 0.7
FIELDS x y z rgb
SIZE 4 4 4 4
TYPE F F F F
COUNT 1 1 1 1
WIDTH 890
HEIGHT 1
VIEWPOINT 0 0 0 1 0 0 0
POINTS 890
DATA ascii
17.80800056 -7.547200203 -4.630080223 2.341805152e-38
16.04000092 -7.408952713 -4.628685951 2.341805152e-38
17.9279995 -7.563908577 -4.627131462 2.341805152e-38
16.9279995 -7.464441776 -4.626986504 2.341805152e-38
18.04800034 -7.580160141 -4.623725891 2.341805152e-38
16.12800026 -7.388160229 -4.623360157 2.341805152e-38
17.03199959 -7.47785902 -4.622971535 2.341805152e-38
17.1439991 -7.46172142 -4.620716095 2.341805152e-38
17.1439991 -7.494376659 -4.620716095 2.341805152e-38
18.16799927 -7.595953941 -4.619862556 2.341805152e-38
18.16799927 -7.561348438 -4.619862556 2.341805152e-38
16.31999969 -7.413942814 -4.61622858 2.341805152e-38
17.24799919 -7.474133015 -4.615892887 2.341805152e-38
18.28800011 -7.611291409 -4.615542889 2.341805152e-38
16.42399979 -7.429904461 -4.614361763 2.341805152e-38
17.36000061 -7.489600182 -4.612800121 2.341805152e-38
18.40800095 -7.626171589 -4.610765934 2.341805152e-38
16.52000046 -7.441866875 -4.609866619 2.341805152e-38
17.47200012 -7.504640102 -4.609280109 2.341805152e-38
16.62400055 -7.457051754 -4.607223034 2.341805152e-38
16.62400055 -7.425386906 -4.607223034 2.341805152e-38
17.69599915 -7.533439636 -4.600959778 2.341805152e-38
17.69599915 -7.567146301 -4.600959778 2.341805152e-38
16.8239994 -7.450628281 -4.598559856 2.341805152e-38
16.04000092 -7.408952713 -4.598133564 2.341805152e-38
16.04000092 -7.378400326 -4.598133564 2.341805152e-38
17.80800056 -7.581120014 -4.596159935 2.341805152e-38
17.80800056 -7.547200203 -4.596159935 2.341805152e-38
16.9279995 -7.464441776 -4.594742775 2.341805152e-38
17.9279995 -7.563908577 -4.592982769 2.341805152e-38
16.12800026 -7.388160229 -4.592639923 2.341805152e-38
17.03199959 -7.47785902 -4.590529442 2.341805152e-38
18.04800034 -7.580160141 -4.589348793 2.341805152e-38
16.22400093 -7.401234627 -4.589074612 2.341805152e-38
17.1439991 -7.46172142 -4.588060856 2.341805152e-38
18.16799927 -7.595953941 -4.585257053 2.341805152e-38
16.31999969 -7.413942814 -4.585142612 2.341805152e-38
16.42399979 -7.429904461 -4.583077908 2.341805152e-38
18.28800011 -7.611291409 -4.580708504 2.341805152e-38
17.36000061 -7.489600182 -4.579733372 2.341805152e-38
16.52000046 -7.441866875 -4.578400135 2.341805152e-38
17.47200012 -7.504640102 -4.576000214 2.341805152e-38
18.40800095 -7.626171589 -4.575703144 2.341805152e-38
16.62400055 -7.425386906 -4.575558186 2.341805152e-38
16.62400055 -7.393722057 -4.575558186 2.341805152e-38
16.04000092 -7.378400326 -4.567581177 2.341805152e-38
17.69599915 -7.567146301 -4.567253113 2.341805152e-38
16.8239994 -7.450628281 -4.566514015 2.341805152e-38
16.9279995 -7.464441776 -4.562499046 2.341805152e-38
17.80800056 -7.547200203 -4.562240124 2.341805152e-38
17.80800056 -7.581120014 -4.562240124 2.341805152e-38
17.80800056 -7.615040302 -4.562240124 2.341805152e-38
16.12800026 -7.388160229 -4.561920166 2.341805152e-38
17.9279995 -7.563908577 -4.558834076 2.341805152e-38
16.22400093 -7.401234627 -4.558171749 2.341805152e-38
17.03199959 -7.47785902 -4.558087349 2.341805152e-38
17.03199959 -7.445416927 -4.558087349 2.341805152e-38
17.1439991 -7.46172142 -4.555405617 2.341805152e-38
17.1439991 -7.429066181 -4.555405617 2.341805152e-38
18.04800034 -7.580160141 -4.554971695 2.341805152e-38
16.31999969 -7.413942814 -4.554057121 2.341805152e-38
16.42399979 -7.429904461 -4.551794052 2.341805152e-38
18.16799927 -7.595953941 -4.550651073 2.341805152e-38
16.52000046 -7.441866875 -4.546933651 2.341805152e-38
16.52000046 -7.410400391 -4.546933651 2.341805152e-38
17.36000061 -7.489600182 -4.546666622 2.341805152e-38
18.28800011 -7.611291409 -4.545874119 2.341805152e-38
16.62400055 -7.425386906 -4.543893337 2.341805152e-38
16.62400055 -7.393722057 -4.543893337 2.341805152e-38
17.47200012 -7.537919998 -4.542719841 2.341805152e-38
17.47200012 -7.504640102 -4.542719841 2.341805152e-38
18.40800095 -7.626171589 -4.540640354 2.341805152e-38
17.58399963 -7.552746296 -4.538346767 2.341805152e-38
16.04000092 -7.378400326 -4.53702879 2.341805152e-38
16.8239994 -7.450628281 -4.534468174 2.341805152e-38
16.12800026 -7.388160229 -4.531199932 2.341805152e-38
17.80800056 -7.581120014 -4.528320312 2.341805152e-38
17.80800056 -7.547200203 -4.528320312 2.341805152e-38
16.22400093 -7.401234627 -4.527268887 2.341805152e-38
17.03199959 -7.445416927 -4.525645733 2.341805152e-38
17.9279995 -7.563908577 -4.524685383 2.341805152e-38
16.31999969 -7.413942814 -4.522971153 2.341805152e-38
17.1439991 -7.429066181 -4.522750378 2.341805152e-38
17.1439991 -7.46172142 -4.522750378 2.341805152e-38
18.04800034 -7.580160141 -4.520594597 2.341805152e-38
16.42399979 -7.429904461 -4.520510197 2.341805152e-38
18.16799927 -7.595953941 -4.51604557 2.341805152e-38
16.52000046 -7.410400391 -4.51546669 2.341805152e-38
16.52000046 -7.441866875 -4.51546669 2.341805152e-38
16.62400055 -7.393722057 -4.512228489 2.341805152e-38
16.62400055 -7.425386906 -4.512228489 2.341805152e-38
18.28800011 -7.611291409 -4.511040211 2.341805152e-38
17.47200012 -7.537919998 -4.509439945 2.341805152e-38
16.04000092 -7.378400326 -4.506476402 2.341805152e-38
16.71999931 -7.436418533 -4.506437778 2.341805152e-38
18.40800095 -7.626171589 -4.505577564 2.341805152e-38
17.58399963 -7.552746296 -4.504853249 2.341805152e-38
16.8239994 -7.450628281 -4.50242281 2.341805152e-38
16.8239994 -7.418582439 -4.50242281 2.341805152e-38
17.69599915 -7.567146301 -4.499839783 2.341805152e-38
16.9279995 -7.432198048 -4.498011112 2.341805152e-38
16.22400093 -7.401234627 -4.496366024 2.341805152e-38
17.80800056 -7.547200203 -4.494400024 2.341805152e-38
17.80800056 -7.581120014 -4.494400024 2.341805152e-38
17.03199959 -7.445416927 -4.49320364 2.341805152e-38
16.31999969 -7.413942814 -4.491885662 2.341805152e-38
17.9279995 -7.563908577 -4.490537167 2.341805152e-38
17.1439991 -7.429066181 -4.490095139 2.341805152e-38
17.1439991 -7.46172142 -4.490095139 2.341805152e-38
16.42399979 -7.429904461 -4.489226818 2.341805152e-38
18.04800034 -7.580160141 -4.486217022 2.341805152e-38
16.52000046 -7.410400391 -4.484000206 2.341805152e-38
18.16799927 -7.595953941 -4.48143959 2.341805152e-38
16.62400055 -7.425386906 -4.480564117 2.341805152e-38
18.28800011 -7.611291409 -4.476205826 2.341805152e-38
17.47200012 -7.537919998 -4.476160049 2.341805152e-38
16.04000092 -7.347847939 -4.475924015 2.341805152e-38
16.71999931 -7.436418533 -4.474590302 2.341805152e-38
17.58399963 -7.552746296 -4.47135973 2.341805152e-38
18.40800095 -7.626171589 -4.470514297 2.341805152e-38
16.8239994 -7.450628281 -4.470376968 2.341805152e-38
16.8239994 -7.418582439 -4.470376968 2.341805152e-38
17.69599915 -7.567146301 -4.466133118 2.341805152e-38
16.9279995 -7.432198048 -4.465767384 2.341805152e-38
16.22400093 -7.401234627 -4.465463161 2.341805152e-38
16.31999969 -7.413942814 -4.460799694 2.341805152e-38
17.03199959 -7.445416927 -4.460762024 2.341805152e-38
17.80800056 -7.581120014 -4.460480213 2.341805152e-38
17.80800056 -7.547200203 -4.460480213 2.341805152e-38
16.42399979 -7.398621082 -4.457942963 2.341805152e-38
16.42399979 -7.429904461 -4.457942963 2.341805152e-38
17.1439991 -7.46172142 -4.457439899 2.341805152e-38
17.1439991 -7.429066181 -4.457439899 2.341805152e-38
17.9279995 -7.563908577 -4.456388474 2.341805152e-38
16.52000046 -7.410400391 -4.452533245 2.341805152e-38
18.04800034 -7.580160141 -4.451839924 2.341805152e-38
17.24799919 -7.474133015 -4.451626301 2.341805152e-38
16.62400055 -7.425386906 -4.448899269 2.341805152e-38
18.16799927 -7.595953941 -4.446834087 2.341805152e-38
16.04000092 -7.347847939 -4.445371628 2.341805152e-38
17.47200012 -7.537919998 -4.442880154 2.341805152e-38
16.71999931 -7.436418533 -4.442742825 2.341805152e-38
18.28800011 -7.611291409 -4.441371441 2.341805152e-38
16.8239994 -7.418582439 -4.438331127 2.341805152e-38
16.8239994 -7.450628281 -4.438331127 2.341805152e-38
17.58399963 -7.552746296 -4.437866688 2.341805152e-38
16.22400093 -7.401234627 -4.434560299 2.341805152e-38
16.9279995 -7.432198048 -4.433523655 2.341805152e-38
17.69599915 -7.567146301 -4.432426453 2.341805152e-38
16.31999969 -7.413942814 -4.429714203 2.341805152e-38
17.03199959 -7.445416927 -4.428319931 2.341805152e-38
16.42399979 -7.429904461 -4.426659107 2.341805152e-38
16.42399979 -7.398621082 -4.426659107 2.341805152e-38
17.80800056 -7.547200203 -4.426559925 2.341805152e-38
17.80800056 -7.581120014 -4.426559925 2.341805152e-38
17.1439991 -7.46172142 -4.42478466 2.341805152e-38
17.9279995 -7.563908577 -4.42223978 2.341805152e-38
16.52000046 -7.410400391 -4.421066761 2.341805152e-38
17.24799919 -7.474133015 -4.418773174 2.341805152e-38
18.04800034 -7.580160141 -4.417462826 2.341805152e-38
16.62400055 -7.425386906 -4.417234421 2.341805152e-38
16.04000092 -7.347847939 -4.414819241 2.341805152e-38
17.36000061 -7.522666931 -4.414400101 2.341805152e-38
18.16799927 -7.595953941 -4.412228584 2.341805152e-38
18.16799927 -7.630559921 -4.412228584 2.341805152e-38
16.71999931 -7.436418533 -4.410894871 2.341805152e-38
17.47200012 -7.537919998 -4.409600258 2.341805152e-38
18.28800011 -7.646125793 -4.406537056 2.341805152e-38
18.28800011 -7.611291409 -4.406537056 2.341805152e-38
18.28800011 -7.576457024 -4.406537056 2.341805152e-38
16.8239994 -7.450628281 -4.406285763 2.341805152e-38
16.8239994 -7.418582439 -4.406285763 2.341805152e-38
17.58399963 -7.552746296 -4.404373169 2.341805152e-38
16.22400093 -7.401234627 -4.403657436 2.341805152e-38
16.9279995 -7.432198048 -4.401279926 2.341805152e-38
16.9279995 -7.496685505 -4.401279926 2.341805152e-38
16.9279995 -7.464441776 -4.401279926 2.341805152e-38
17.69599915 -7.567146301 -4.398719788 2.341805152e-38
16.31999969 -7.413942814 -4.398628712 2.341805152e-38
17.03199959 -7.445416927 -4.395877838 2.341805152e-38
16.42399979 -7.398621082 -4.395375252 2.341805152e-38
17.80800056 -7.581120014 -4.392640114 2.341805152e-38
17.80800056 -7.547200203 -4.392640114 2.341805152e-38
17.1439991 -7.46172142 -4.392129421 2.341805152e-38
16.52000046 -7.410400391 -4.389600277 2.341805152e-38
17.9279995 -7.563908577 -4.388091087 2.341805152e-38
16.62400055 -7.425386906 -4.385569572 2.341805152e-38
16.04000092 -7.347847939 -4.384266853 2.341805152e-38
18.04800034 -7.614537239 -4.383085728 2.341805152e-38
17.36000061 -7.522666931 -4.381333351 2.341805152e-38
16.71999931 -7.468266487 -4.379047394 2.341805152e-38
16.71999931 -7.436418533 -4.379047394 2.341805152e-38
18.16799927 -7.630559921 -4.377622604 2.341805152e-38
17.47200012 -7.537919998 -4.376319885 2.341805152e-38
16.8239994 -7.482674122 -4.374239922 2.341805152e-38
16.22400093 -7.401234627 -4.372754574 2.341805152e-38
18.28800011 -7.611291409 -4.371702671 2.341805152e-38
18.28800011 -7.646125793 -4.371702671 2.341805152e-38
18.28800011 -7.576457024 -4.371702671 2.341805152e-38
17.58399963 -7.552746296 -4.370880127 2.341805152e-38
16.9279995 -7.496685505 -4.369036198 2.341805152e-38
16.9279995 -7.432198048 -4.369036198 2.341805152e-38
16.9279995 -7.464441776 -4.369036198 2.341805152e-38
16.31999969 -7.382856846 -4.367542744 2.341805152e-38
17.69599915 -7.567146301 -4.365013123 2.341805152e-38
16.42399979 -7.398621082 -4.364091396 2.341805152e-38
17.03199959 -7.47785902 -4.363436222 2.341805152e-38
17.03199959 -7.445416927 -4.363436222 2.341805152e-38
17.1439991 -7.46172142 -4.359474182 2.341805152e-38
17.80800056 -7.581120014 -4.358720303 2.341805152e-38
17.80800056 -7.547200203 -4.358720303 2.341805152e-38
16.52000046 -7.410400391 -4.358133316 2.341805152e-38
17.9279995 -7.598056793 -4.353942871 2.341805152e-38
16.04000092 -7.347847939 -4.353714466 2.341805152e-38
17.24799919 -7.506986141 -4.353066444 2.341805152e-38
18.04800034 -7.614537239 -4.34870863 2.341805152e-38
17.36000061 -7.522666931 -4.348266602 2.341805152e-38
16.71999931 -7.468266487 -4.347199917 2.341805152e-38
16.12800026 -7.388160229 -4.346879959 2.341805152e-38
17.47200012 -7.537919998 -4.343039989 2.341805152e-38
18.16799927 -7.665165424 -4.343017101 2.341805152e-38
18.16799927 -7.630559921 -4.343017101 2.341805152e-38
16.8239994 -7.514719963 -4.34219408 2.341805152e-38
16.8239994 -7.482674122 -4.34219408 2.341805152e-38
16.22400093 -7.370331764 -4.341851711 2.341805152e-38
16.22400093 -7.401234627 -4.341851711 2.341805152e-38
17.58399963 -7.552746296 -4.337386608 2.341805152e-38
18.28800011 -7.646125793 -4.336868763 2.341805152e-38
18.28800011 -7.611291409 -4.336868763 2.341805152e-38
18.28800011 -7.576457024 -4.336868763 2.341805152e-38
16.9279995 -7.464441776 -4.336792469 2.341805152e-38
16.9279995 -7.496685505 -4.336792469 2.341805152e-38
16.31999969 -7.382856846 -4.336457253 2.341805152e-38
16.42399979 -7.398621082 -4.332807541 2.341805152e-38
17.69599915 -7.567146301 -4.331306458 2.341805152e-38
17.03199959 -7.47785902 -4.330994129 2.341805152e-38
17.03199959 -7.445416927 -4.330994129 2.341805152e-38
18.40800095 -7.626171589 -4.330263138 2.341805152e-38
17.1439991 -7.494376659 -4.326818943 2.341805152e-38
16.52000046 -7.410400391 -4.326666832 2.341805152e-38
17.80800056 -7.581120014 -4.324800014 2.341805152e-38
16.62400055 -7.457051754 -4.322240353 2.341805152e-38
17.24799919 -7.506986141 -4.320213318 2.341805152e-38
17.9279995 -7.598056793 -4.319794178 2.341805152e-38
16.12800026 -7.388160229 -4.316160202 2.341805152e-38
18.04800034 -7.648914337 -4.314331532 2.341805152e-38
16.22400093 -7.370331764 -4.310948849 2.341805152e-38
16.22400093 -7.401234627 -4.310948849 2.341805152e-38
16.8239994 -7.482674122 -4.310148239 2.341805152e-38
16.8239994 -7.514719963 -4.310148239 2.341805152e-38
17.47200012 -7.537919998 -4.309760094 2.341805152e-38
18.16799927 -7.665165424 -4.308411121 2.341805152e-38
18.16799927 -7.630559921 -4.308411121 2.341805152e-38
16.31999969 -7.382856846 -4.305371284 2.341805152e-38
16.9279995 -7.496685505 -4.304548264 2.341805152e-38
16.9279995 -7.464441776 -4.304548264 2.341805152e-38
17.58399963 -7.552746296 -4.303893089 2.341805152e-38
18.28800011 -7.680960178 -4.302034378 2.341805152e-38
18.28800011 -7.646125793 -4.302034378 2.341805152e-38
18.28800011 -7.611291409 -4.302034378 2.341805152e-38
16.42399979 -7.398621082 -4.301523685 2.341805152e-38
17.03199959 -7.47785902 -4.298552513 2.341805152e-38
18.40800095 -7.626171589 -4.295200348 2.341805152e-38
17.1439991 -7.494376659 -4.294163704 2.341805152e-38
16.04000092 -7.378400326 -4.292609692 2.341805152e-38
17.80800056 -7.581120014 -4.290880203 2.341805152e-38
16.62400055 -7.457051754 -4.290575504 2.341805152e-38
17.24799919 -7.474133015 -4.287359715 2.341805152e-38
17.24799919 -7.506986141 -4.287359715 2.341805152e-38
16.12800026 -7.388160229 -4.285439968 2.341805152e-38
16.22400093 -7.401234627 -4.280045986 2.341805152e-38
16.22400093 -7.370331764 -4.280045986 2.341805152e-38
18.04800034 -7.648914337 -4.279954433 2.341805152e-38
16.8239994 -7.482674122 -4.278102875 2.341805152e-38
16.8239994 -7.514719963 -4.278102875 2.341805152e-38
17.47200012 -7.537919998 -4.276480198 2.341805152e-38
16.31999969 -7.382856846 -4.274285793 2.341805152e-38
18.16799927 -7.665165424 -4.273805618 2.341805152e-38
16.9279995 -7.464441776 -4.272304535 2.341805152e-38
16.9279995 -7.496685505 -4.272304535 2.341805152e-38
17.58399963 -7.519253254 -4.270400047 2.341805152e-38
16.42399979 -7.398621082 -4.27023983 2.341805152e-38
18.28800011 -7.611291409 -4.267199993 2.341805152e-38
18.28800011 -7.680960178 -4.267199993 2.341805152e-38
18.28800011 -7.646125793 -4.267199993 2.341805152e-38
17.03199959 -7.47785902 -4.26611042 2.341805152e-38
17.03199959 -7.510300636 -4.26611042 2.341805152e-38
16.04000092 -7.378400326 -4.262057304 2.341805152e-38
17.1439991 -7.494376659 -4.261508465 2.341805152e-38
18.40800095 -7.626171589 -4.260137558 2.341805152e-38
16.62400055 -7.457051754 -4.258910656 2.341805152e-38
17.80800056 -7.581120014 -4.256959915 2.341805152e-38
16.12800026 -7.388160229 -4.254720211 2.341805152e-38
16.12800026 -7.418879986 -4.254720211 2.341805152e-38
17.24799919 -7.474133015 -4.254506588 2.341805152e-38
16.22400093 -7.370331764 -4.249143124 2.341805152e-38
16.22400093 -7.401234627 -4.249143124 2.341805152e-38
16.8239994 -7.514719963 -4.246057034 2.341805152e-38
16.8239994 -7.482674122 -4.246057034 2.341805152e-38
18.04800034 -7.648914337 -4.245577335 2.341805152e-38
17.47200012 -7.504640102 -4.243199825 2.341805152e-38
16.31999969 -7.382856846 -4.243199825 2.341805152e-38
16.9279995 -7.496685505 -4.240060806 2.341805152e-38
18.16799927 -7.665165424 -4.239199638 2.341805152e-38
16.42399979 -7.398621082 -4.238955975 2.341805152e-38
17.58399963 -7.519253254 -4.236906528 2.341805152e-38
17.03199959 -7.47785902 -4.233668327 2.341805152e-38
17.03199959 -7.510300636 -4.233668327 2.341805152e-38
18.28800011 -7.611291409 -4.232365608 2.341805152e-38
18.28800011 -7.646125793 -4.232365608 2.341805152e-38
18.28800011 -7.680960178 -4.232365608 2.341805152e-38
16.52000046 -7.441866875 -4.232266903 2.341805152e-38
16.04000092 -7.408952713 -4.231504917 2.341805152e-38
17.1439991 -7.494376659 -4.228853226 2.341805152e-38
17.1439991 -7.46172142 -4.228853226 2.341805152e-38
16.62400055 -7.457051754 -4.227245808 2.341805152e-38
18.40800095 -7.661234856 -4.225074291 2.341805152e-38
18.40800095 -7.626171589 -4.225074291 2.341805152e-38
16.12800026 -7.418879986 -4.223999977 2.341805152e-38
16.12800026 -7.388160229 -4.223999977 2.341805152e-38
17.80800056 -7.581120014 -4.223040104 2.341805152e-38
17.24799919 -7.474133015 -4.221652985 2.341805152e-38
16.22400093 -7.401234627 -4.218240261 2.341805152e-38
16.22400093 -7.370331764 -4.218240261 2.341805152e-38
17.36000061 -7.489600182 -4.21600008 2.341805152e-38
16.8239994 -7.482674122 -4.214011192 2.341805152e-38
16.31999969 -7.382856846 -4.212114334 2.341805152e-38
17.47200012 -7.504640102 -4.20991993 2.341805152e-38
16.9279995 -7.496685505 -4.207817078 2.341805152e-38
16.42399979 -7.429904461 -4.207672119 2.341805152e-38
18.16799927 -7.665165424 -4.204594135 2.341805152e-38
17.58399963 -7.519253254 -4.20341301 2.341805152e-38
17.03199959 -7.47785902 -4.201226711 2.341805152e-38
17.03199959 -7.510300636 -4.201226711 2.341805152e-38
16.04000092 -7.408952713 -4.20095253 2.341805152e-38
16.52000046 -7.441866875 -4.200799942 2.341805152e-38
18.28800011 -7.680960178 -4.197531223 2.341805152e-38
18.28800011 -7.646125793 -4.197531223 2.341805152e-38
17.1439991 -7.494376659 -4.196197987 2.341805152e-38
17.1439991 -7.46172142 -4.196197987 2.341805152e-38
16.62400055 -7.457051754 -4.195580959 2.341805152e-38
16.12800026 -7.388160229 -4.19328022 2.341805152e-38
16.12800026 -7.418879986 -4.19328022 2.341805152e-38
18.40800095 -7.661234856 -4.190011501 2.341805152e-38
18.40800095 -7.626171589 -4.190011501 2.341805152e-38
17.80800056 -7.581120014 -4.189120293 2.341805152e-38
17.24799919 -7.474133015 -4.188799858 2.341805152e-38
16.71999931 -7.468266487 -4.187961578 2.341805152e-38
16.22400093 -7.370331764 -4.187337399 2.341805152e-38
16.22400093 -7.401234627 -4.187337399 2.341805152e-38
16.22400093 -7.432137489 -4.187337399 2.341805152e-38
17.9279995 -7.598056793 -4.183199883 2.341805152e-38
17.36000061 -7.489600182 -4.182933331 2.341805152e-38
16.8239994 -7.482674122 -4.181965351 2.341805152e-38
16.31999969 -7.413942814 -4.181028366 2.341805152e-38
17.47200012 -7.504640102 -4.176640034 2.341805152e-38
16.42399979 -7.429904461 -4.176388741 2.341805152e-38
16.9279995 -7.496685505 -4.175573349 2.341805152e-38
16.04000092 -7.408952713 -4.170400143 2.341805152e-38
16.04000092 -7.4395051 -4.170400143 2.341805152e-38
18.16799927 -7.665165424 -4.169988632 2.341805152e-38
17.58399963 -7.519253254 -4.169919968 2.341805152e-38
16.52000046 -7.441866875 -4.169333458 2.341805152e-38
17.03199959 -7.510300636 -4.168784618 2.341805152e-38
17.03199959 -7.47785902 -4.168784618 2.341805152e-38
16.62400055 -7.457051754 -4.163916111 2.341805152e-38
17.1439991 -7.46172142 -4.163542747 2.341805152e-38
17.1439991 -7.494376659 -4.163542747 2.341805152e-38
18.28800011 -7.646125793 -4.162697315 2.341805152e-38
18.28800011 -7.680960178 -4.162697315 2.341805152e-38
16.12800026 -7.418879986 -4.162559986 2.341805152e-38
16.22400093 -7.401234627 -4.156434536 2.341805152e-38
16.22400093 -7.432137489 -4.156434536 2.341805152e-38
16.71999931 -7.468266487 -4.156114101 2.341805152e-38
17.24799919 -7.474133015 -4.155946255 2.341805152e-38
17.80800056 -7.581120014 -4.155200005 2.341805152e-38
18.40800095 -7.661234856 -4.154948711 2.341805152e-38
18.40800095 -7.626171589 -4.154948711 2.341805152e-38
16.31999969 -7.413942814 -4.149942875 2.341805152e-38
16.8239994 -7.482674122 -4.149919987 2.341805152e-38
17.36000061 -7.489600182 -4.149866581 2.341805152e-38
17.9279995 -7.598056793 -4.149051189 2.341805152e-38
16.42399979 -7.429904461 -4.145104885 2.341805152e-38
17.47200012 -7.504640102 -4.143360138 2.341805152e-38
16.9279995 -7.496685505 -4.14332962 2.341805152e-38
16.04000092 -7.408952713 -4.139847755 2.341805152e-38
16.52000046 -7.441866875 -4.137866974 2.341805152e-38
16.52000046 -7.473333359 -4.137866974 2.341805152e-38
17.58399963 -7.519253254 -4.136426449 2.341805152e-38
17.03199959 -7.510300636 -4.136342525 2.341805152e-38
17.03199959 -7.47785902 -4.136342525 2.341805152e-38
18.16799927 -7.665165424 -4.135382652 2.341805152e-38
16.62400055 -7.457051754 -4.13225174 2.341805152e-38
16.12800026 -7.418879986 -4.131840229 2.341805152e-38
17.1439991 -7.46172142 -4.130887508 2.341805152e-38
17.1439991 -7.494376659 -4.130887508 2.341805152e-38
18.28800011 -7.680960178 -4.12786293 2.341805152e-38
18.28800011 -7.646125793 -4.12786293 2.341805152e-38
16.22400093 -7.432137489 -4.125531673 2.341805152e-38
16.22400093 -7.401234627 -4.125531673 2.341805152e-38
16.71999931 -7.468266487 -4.124266624 2.341805152e-38
17.24799919 -7.474133015 -4.123093128 2.341805152e-38
17.24799919 -7.506986141 -4.123093128 2.341805152e-38
18.40800095 -7.661234856 -4.119885921 2.341805152e-38
18.40800095 -7.626171589 -4.119885921 2.341805152e-38
16.31999969 -7.413942814 -4.118856907 2.341805152e-38
16.8239994 -7.482674122 -4.117874146 2.341805152e-38
17.36000061 -7.489600182 -4.116800308 2.341805152e-38
17.9279995 -7.598056793 -4.114902973 2.341805152e-38
16.42399979 -7.461188316 -4.11382103 2.341805152e-38
17.47200012 -7.504640102 -4.110080242 2.341805152e-38
16.04000092 -7.408952713 -4.109295368 2.341805152e-38
16.52000046 -7.441866875 -4.106400013 2.341805152e-38
16.52000046 -7.473333359 -4.106400013 2.341805152e-38
17.03199959 -7.510300636 -4.103900909 2.341805152e-38
17.03199959 -7.47785902 -4.103900909 2.341805152e-38
17.58399963 -7.519253254 -4.102933407 2.341805152e-38
16.12800026 -7.418879986 -4.101119995 2.341805152e-38
16.62400055 -7.457051754 -4.100586891 2.341805152e-38
17.1439991 -7.494376659 -4.098232269 2.341805152e-38
17.69599915 -7.533439636 -4.095359802 2.341805152e-38
16.22400093 -7.432137489 -4.094628811 2.341805152e-38
16.22400093 -7.401234627 -4.094628811 2.341805152e-38
18.28800011 -7.646125793 -4.093028545 2.341805152e-38
16.71999931 -7.468266487 -4.092418671 2.341805152e-38
17.24799919 -7.506986141 -4.090240002 2.341805152e-38
17.24799919 -7.474133015 -4.090240002 2.341805152e-38
16.31999969 -7.445028305 -4.087771416 2.341805152e-38
16.8239994 -7.482674122 -4.085828304 2.341805152e-38
16.8239994 -7.450628281 -4.085828304 2.341805152e-38
18.40800095 -7.626171589 -4.084823132 2.341805152e-38
18.40800095 -7.661234856 -4.084823132 2.341805152e-38
17.36000061 -7.489600182 -4.083733559 2.341805152e-38
16.42399979 -7.461188316 -4.082537174 2.341805152e-38
16.04000092 -7.408952713 -4.078742981 2.341805152e-38
17.47200012 -7.504640102 -4.07679987 2.341805152e-38
16.52000046 -7.441866875 -4.074933529 2.341805152e-38
16.52000046 -7.473333359 -4.074933529 2.341805152e-38
18.04800034 -7.614537239 -4.073691368 2.341805152e-38
17.03199959 -7.510300636 -4.071458817 2.341805152e-38
17.03199959 -7.47785902 -4.071458817 2.341805152e-38
16.12800026 -7.418879986 -4.070400238 2.341805152e-38
17.58399963 -7.519253254 -4.069439888 2.341805152e-38
16.62400055 -7.457051754 -4.068922043 2.341805152e-38
18.16799927 -7.630559921 -4.066171169 2.341805152e-38
17.1439991 -7.494376659 -4.06557703 2.341805152e-38
16.22400093 -7.432137489 -4.063725948 2.341805152e-38
17.69599915 -7.533439636 -4.061653137 2.341805152e-38
16.71999931 -7.468266487 -4.060571194 2.341805152e-38
18.28800011 -7.646125793 -4.05819416 2.341805152e-38
17.24799919 -7.474133015 -4.057386398 2.341805152e-38
17.24799919 -7.506986141 -4.057386398 2.341805152e-38
16.31999969 -7.445028305 -4.056685448 2.341805152e-38
16.31999969 -7.476114273 -4.056685448 2.341805152e-38
16.8239994 -7.450628281 -4.05378294 2.341805152e-38
16.42399979 -7.461188316 -4.051253319 2.341805152e-38
17.36000061 -7.489600182 -4.050666809 2.341805152e-38
17.36000061 -7.522666931 -4.050666809 2.341805152e-38
18.40800095 -7.626171589 -4.049760342 2.341805152e-38
18.40800095 -7.661234856 -4.049760342 2.341805152e-38
16.04000092 -7.408952713 -4.048190594 2.341805152e-38
16.9279995 -7.496685505 -4.046597958 2.341805152e-38
17.47200012 -7.504640102 -4.043519974 2.341805152e-38
17.47200012 -7.537919998 -4.043519974 2.341805152e-38
16.52000046 -7.441866875 -4.043466568 2.341805152e-38
16.52000046 -7.473333359 -4.043466568 2.341805152e-38
16.12800026 -7.418879986 -4.039680004 2.341805152e-38
17.03199959 -7.47785902 -4.0390172 2.341805152e-38
17.03199959 -7.510300636 -4.0390172 2.341805152e-38
16.62400055 -7.457051754 -4.037257195 2.341805152e-38
17.58399963 -7.519253254 -4.035946369 2.341805152e-38
17.1439991 -7.494376659 -4.032921791 2.341805152e-38
16.22400093 -7.463040352 -4.032823086 2.341805152e-38
18.16799927 -7.630559921 -4.031565666 2.341805152e-38
16.71999931 -7.436418533 -4.028723717 2.341805152e-38
17.69599915 -7.533439636 -4.027946472 2.341805152e-38
17.69599915 -7.499732971 -4.027946472 2.341805152e-38
16.31999969 -7.476114273 -4.025599957 2.341805152e-38
16.31999969 -7.445028305 -4.025599957 2.341805152e-38
17.24799919 -7.506986141 -4.024533272 2.341805152e-38
18.28800011 -7.646125793 -4.023360252 2.341805152e-38
16.42399979 -7.461188316 -4.019969463 2.341805152e-38
16.42399979 -7.492472172 -4.019969463 2.341805152e-38
16.04000092 -7.408952713 -4.017638206 2.341805152e-38
17.36000061 -7.522666931 -4.01760006 2.341805152e-38
18.40800095 -7.626171589 -4.014697552 2.341805152e-38
16.9279995 -7.496685505 -4.014354229 2.341805152e-38
17.9279995 -7.563908577 -4.012456894 2.341805152e-38
16.52000046 -7.441866875 -4.012000084 2.341805152e-38
16.52000046 -7.473333359 -4.012000084 2.341805152e-38
17.47200012 -7.537919998 -4.010240078 2.341805152e-38
17.47200012 -7.504640102 -4.010240078 2.341805152e-38
17.03199959 -7.47785902 -4.006575108 2.341805152e-38
16.62400055 -7.425386906 -4.005592346 2.341805152e-38
16.62400055 -7.457051754 -4.005592346 2.341805152e-38
17.1439991 -7.494376659 -4.000266552 2.341805152e-38
18.16799927 -7.630559921 -3.996959925 2.341805152e-38
16.71999931 -7.436418533 -3.996876001 2.341805152e-38
17.69599915 -7.533439636 -3.994239807 2.341805152e-38
17.69599915 -7.499732971 -3.994239807 2.341805152e-38
17.24799919 -7.506986141 -3.991679907 2.341805152e-38
16.8239994 -7.482674122 -3.989691257 2.341805152e-38
16.42399979 -7.461188316 -3.988685608 2.341805152e-38
18.28800011 -7.611291409 -3.988525629 2.341805152e-38
18.28800011 -7.646125793 -3.988525629 2.341805152e-38
16.04000092 -7.408952713 -3.987086058 2.341805152e-38
17.80800056 -7.547200203 -3.985600233 2.341805152e-38
17.36000061 -7.522666931 -3.984533548 2.341805152e-38
16.9279995 -7.496685505 -3.982110262 2.341805152e-38
16.9279995 -7.464441776 -3.982110262 2.341805152e-38
16.52000046 -7.441866875 -3.980533361 2.341805152e-38
18.40800095 -7.626171589 -3.979634523 2.341805152e-38
17.9279995 -7.563908577 -3.978308439 2.341805152e-38
16.12800026 -7.418879986 -3.978240013 2.341805152e-38
17.47200012 -7.471360207 -3.976959944 2.341805152e-38
17.47200012 -7.504640102 -3.976959944 2.341805152e-38
17.47200012 -7.537919998 -3.976959944 2.341805152e-38
17.03199959 -7.47785902 -3.974133253 2.341805152e-38
16.62400055 -7.425386906 -3.973927736 2.341805152e-38
16.62400055 -7.457051754 -3.973927736 2.341805152e-38
16.22400093 -7.432137489 -3.971017361 2.341805152e-38
17.1439991 -7.494376659 -3.967611313 2.341805152e-38
16.31999969 -7.445028305 -3.963428497 2.341805152e-38
17.69599915 -7.533439636 -3.960533142 2.341805152e-38
17.24799919 -7.506986141 -3.958826542 2.341805152e-38
17.24799919 -7.539839745 -3.958826542 2.341805152e-38
16.8239994 -7.482674122 -3.957645655 2.341805152e-38
16.42399979 -7.429904461 -3.957401752 2.341805152e-38
16.04000092 -7.408952713 -3.95653367 2.341805152e-38
18.28800011 -7.646125793 -3.953691483 2.341805152e-38
18.28800011 -7.611291409 -3.953691483 2.341805152e-38
17.80800056 -7.547200203 -3.951680183 2.341805152e-38
17.36000061 -7.522666931 -3.951466799 2.341805152e-38
16.9279995 -7.464441776 -3.949866533 2.341805152e-38
16.9279995 -7.496685505 -3.949866533 2.341805152e-38
16.52000046 -7.441866875 -3.949066877 2.341805152e-38
16.12800026 -7.418879986 -3.947520018 2.341805152e-38
18.40800095 -7.626171589 -3.944571733 2.341805152e-38
17.9279995 -7.563908577 -3.944159985 2.341805152e-38
17.47200012 -7.504640102 -3.943680048 2.341805152e-38
17.47200012 -7.537919998 -3.943680048 2.341805152e-38
17.47200012 -7.471360207 -3.943680048 2.341805152e-38
16.62400055 -7.457051754 -3.942262888 2.341805152e-38
16.62400055 -7.425386906 -3.942262888 2.341805152e-38
17.03199959 -7.47785902 -3.941691399 2.341805152e-38
17.03199959 -7.510300636 -3.941691399 2.341805152e-38
16.22400093 -7.432137489 -3.940114498 2.341805152e-38
18.04800034 -7.580160141 -3.936182976 2.341805152e-38
17.58399963 -7.519253254 -3.935466528 2.341805152e-38
17.1439991 -7.527031898 -3.934956074 2.341805152e-38
16.71999931 -7.468266487 -3.933180809 2.341805152e-38
16.31999969 -7.413942814 -3.932342768 2.341805152e-38
16.31999969 -7.445028305 -3.932342768 2.341805152e-38
17.69599915 -7.533439636 -3.926826477 2.341805152e-38
16.42399979 -7.429904461 -3.926118135 2.341805152e-38
17.24799919 -7.506986141 -3.925973177 2.341805152e-38
16.8239994 -7.482674122 -3.925599813 2.341805152e-38
18.28800011 -7.646125793 -3.918857098 2.341805152e-38
18.28800011 -7.611291409 -3.918857098 2.341805152e-38
17.36000061 -7.555733681 -3.918400049 2.341805152e-38
17.36000061 -7.522666931 -3.918400049 2.341805152e-38
17.80800056 -7.547200203 -3.917760134 2.341805152e-38
16.9279995 -7.496685505 -3.917622805 2.341805152e-38
16.52000046 -7.441866875 -3.917600155 2.341805152e-38
16.12800026 -7.418879986 -3.916800022 2.341805152e-38
16.62400055 -7.457051754 -3.910598278 2.341805152e-38
17.47200012 -7.537919998 -3.910399914 2.341805152e-38
17.47200012 -7.504640102 -3.910399914 2.341805152e-38
17.9279995 -7.563908577 -3.910011292 2.341805152e-38
18.40800095 -7.626171589 -3.909508705 2.341805152e-38
17.03199959 -7.510300636 -3.909249544 2.341805152e-38
16.22400093 -7.432137489 -3.909211636 2.341805152e-38
17.1439991 -7.494376659 -3.902300835 2.341805152e-38
17.58399963 -7.519253254 -3.901973248 2.341805152e-38
18.04800034 -7.580160141 -3.901805878 2.341805152e-38
16.71999931 -7.468266487 -3.901333094 2.341805152e-38
16.31999969 -7.413942814 -3.901257038 2.341805152e-38
16.31999969 -7.445028305 -3.901257038 2.341805152e-38
16.42399979 -7.429904461 -3.89483428 2.341805152e-38
16.8239994 -7.482674122 -3.893554211 2.341805152e-38
17.69599915 -7.533439636 -3.893119812 2.341805152e-38
16.52000046 -7.441866875 -3.886133432 2.341805152e-38
16.12800026 -7.418879986 -3.886080027 2.341805152e-38
16.9279995 -7.496685505 -3.885378838 2.341805152e-38
17.36000061 -7.522666931 -3.885333538 2.341805152e-38
18.28800011 -7.646125793 -3.884022951 2.341805152e-38
18.28800011 -7.611291409 -3.884022951 2.341805152e-38
17.80800056 -7.547200203 -3.883840084 2.341805152e-38
17.80800056 -7.581120014 -3.883840084 2.341805152e-38
16.62400055 -7.457051754 -3.87893343 2.341805152e-38
16.22400093 -7.432137489 -3.878308773 2.341805152e-38
17.47200012 -7.504640102 -3.877120018 2.341805152e-38
17.47200012 -7.537919998 -3.877120018 2.341805152e-38
17.03199959 -7.47785902 -3.876807451 2.341805152e-38
17.03199959 -7.510300636 -3.876807451 2.341805152e-38
17.9279995 -7.563908577 -3.875862837 2.341805152e-38
18.40800095 -7.626171589 -3.874445915 2.341805152e-38
16.31999969 -7.445028305 -3.870171309 2.341805152e-38
16.31999969 -7.413942814 -3.870171309 2.341805152e-38
17.1439991 -7.494376659 -3.869645596 2.341805152e-38
16.71999931 -7.468266487 -3.869485617 2.341805152e-38
17.58399963 -7.519253254 -3.868479967 2.341805152e-38
17.58399963 -7.552746296 -3.868479967 2.341805152e-38
18.04800034 -7.580160141 -3.867428541 2.341805152e-38
16.42399979 -7.429904461 -3.863550425 2.341805152e-38
16.8239994 -7.482674122 -3.861508369 2.341805152e-38
17.24799919 -7.506986141 -3.860266447 2.341805152e-38
17.69599915 -7.567146301 -3.859413147 2.341805152e-38
16.12800026 -7.418879986 -3.855360031 2.341805152e-38
16.52000046 -7.441866875 -3.85466671 2.341805152e-38
16.9279995 -7.496685505 -3.853135109 2.341805152e-38
17.36000061 -7.522666931 -3.852266788 2.341805152e-38
17.80800056 -7.547200203 -3.849920034 2.341805152e-38
17.80800056 -7.581120014 -3.849920034 2.341805152e-38
18.28800011 -7.646125793 -3.849188566 2.341805152e-38
18.28800011 -7.611291409 -3.849188566 2.341805152e-38
16.22400093 -7.432137489 -3.84740591 2.341805152e-38
16.62400055 -7.457051754 -3.847268581 2.341805152e-38
17.03199959 -7.510300636 -3.844365597 2.341805152e-38
17.03199959 -7.47785902 -3.844365597 2.341805152e-38
17.47200012 -7.537919998 -3.843840122 2.341805152e-38
17.9279995 -7.563908577 -3.841714144 2.341805152e-38
18.40800095 -7.626171589 -3.839383125 2.341805152e-38
16.31999969 -7.413942814 -3.839085579 2.341805152e-38
16.71999931 -7.468266487 -3.837637901 2.341805152e-38
17.1439991 -7.494376659 -3.836990356 2.341805152e-38
17.58399963 -7.552746296 -3.834986687 2.341805152e-38
16.04000092 -7.408952713 -3.834324121 2.341805152e-38
18.04800034 -7.580160141 -3.833051443 2.341805152e-38
16.42399979 -7.429904461 -3.832266569 2.341805152e-38
16.8239994 -7.482674122 -3.829462767 2.341805152e-38
17.24799919 -7.506986141 -3.827413082 2.341805152e-38
17.69599915 -7.567146301 -3.825706482 2.341805152e-38
16.12800026 -7.418879986 -3.824640036 2.341805152e-38
16.52000046 -7.441866875 -3.823199987 2.341805152e-38
16.9279995 -7.496685505 -3.82089138 2.341805152e-38
17.36000061 -7.522666931 -3.819200039 2.341805152e-38
17.36000061 -7.555733681 -3.819200039 2.341805152e-38
16.22400093 -7.432137489 -3.816503048 2.341805152e-38
16.22400093 -7.401234627 -3.816503048 2.341805152e-38
17.80800056 -7.581120014 -3.816000223 2.341805152e-38
17.80800056 -7.547200203 -3.816000223 2.341805152e-38
16.62400055 -7.457051754 -3.815603971 2.341805152e-38
18.28800011 -7.646125793 -3.81435442 2.341805152e-38
18.28800011 -7.611291409 -3.81435442 2.341805152e-38
17.03199959 -7.510300636 -3.811923742 2.341805152e-38
17.03199959 -7.47785902 -3.811923742 2.341805152e-38
15.94400024 -7.425348759 -3.81137538 2.341805152e-38
17.47200012 -7.571199894 -3.810559988 2.341805152e-38
17.47200012 -7.537919998 -3.810559988 2.341805152e-38
16.31999969 -7.413942814 -3.807999849 2.341805152e-38
17.9279995 -7.563908577 -3.807565689 2.341805152e-38
16.71999931 -7.468266487 -3.805790424 2.341805152e-38
17.1439991 -7.494376659 -3.804335117 2.341805152e-38
18.40800095 -7.626171589 -3.804320097 2.341805152e-38
16.04000092 -7.408952713 -3.803771734 2.341805152e-38
17.58399963 -7.552746296 -3.801493168 2.341805152e-38
17.58399963 -7.586239815 -3.801493168 2.341805152e-38
16.42399979 -7.429904461 -3.800982714 2.341805152e-38
16.8239994 -7.482674122 -3.797416925 2.341805152e-38
17.24799919 -7.539839745 -3.794559717 2.341805152e-38
16.12800026 -7.418879986 -3.79392004 2.341805152e-38
17.69599915 -7.567146301 -3.791999817 2.341805152e-38
16.52000046 -7.441866875 -3.791733503 2.341805152e-38
16.9279995 -7.496685505 -3.788647413 2.341805152e-38
17.36000061 -7.555733681 -3.786133528 2.341805152e-38
16.22400093 -7.432137489 -3.785600185 2.341805152e-38
16.22400093 -7.401234627 -3.785600185 2.341805152e-38
16.62400055 -7.457051754 -3.783939123 2.341805152e-38
17.80800056 -7.581120014 -3.782080173 2.341805152e-38
17.80800056 -7.547200203 -3.782080173 2.341805152e-38
15.94400024 -7.425348759 -3.781005859 2.341805152e-38
18.28800011 -7.646125793 -3.779520035 2.341805152e-38
18.28800011 -7.611291409 -3.779520035 2.341805152e-38
17.03199959 -7.47785902 -3.779481888 2.341805152e-38
17.03199959 -7.510300636 -3.779481888 2.341805152e-38
17.47200012 -7.571199894 -3.777280092 2.341805152e-38
16.31999969 -7.413942814 -3.77691412 2.341805152e-38
16.71999931 -7.468266487 -3.773942709 2.341805152e-38
17.9279995 -7.598056793 -3.773416996 2.341805152e-38
17.9279995 -7.563908577 -3.773416996 2.341805152e-38
17.9279995 -7.529759884 -3.773416996 2.341805152e-38
16.04000092 -7.408952713 -3.773219347 2.341805152e-38
16.42399979 -7.429904461 -3.769699097 2.341805152e-38
18.40800095 -7.626171589 -3.769257307 2.341805152e-38
17.58399963 -7.586239815 -3.767999887 2.341805152e-38
17.58399963 -7.552746296 -3.767999887 2.341805152e-38
16.8239994 -7.482674122 -3.765371323 2.341805152e-38
16.12800026 -7.418879986 -3.763200045 2.341805152e-38
17.24799919 -7.539839745 -3.761706591 2.341805152e-38
16.52000046 -7.441866875 -3.760266781 2.341805152e-38
17.69599915 -7.567146301 -3.758293152 2.341805152e-38
17.69599915 -7.600852966 -3.758293152 2.341805152e-38
16.9279995 -7.496685505 -3.756403685 2.341805152e-38
16.22400093 -7.401234627 -3.754697323 2.341805152e-38
16.22400093 -7.432137489 -3.754697323 2.341805152e-38
17.36000061 -7.555733681 -3.753066778 2.341805152e-38
16.62400055 -7.457051754 -3.752274513 2.341805152e-38
15.94400024 -7.425348759 -3.750636339 2.341805152e-38
17.80800056 -7.581120014 -3.748160124 2.341805152e-38
17.03199959 -7.510300636 -3.747039795 2.341805152e-38
17.03199959 -7.47785902 -3.747039795 2.341805152e-38
16.31999969 -7.413942814 -3.74582839 2.341805152e-38
18.28800011 -7.646125793 -3.74468565 2.341805152e-38
18.28800011 -7.611291409 -3.74468565 2.341805152e-38
17.47200012 -7.571199894 -3.743999958 2.341805152e-38
16.04000092 -7.408952713 -3.74266696 2.341805152e-38
16.71999931 -7.468266487 -3.742094994 2.341805152e-38
17.9279995 -7.529759884 -3.739268541 2.341805152e-38
17.9279995 -7.563908577 -3.739268541 2.341805152e-38
17.1439991 -7.527031898 -3.739024639 2.341805152e-38
16.42399979 -7.429904461 -3.738415241 2.341805152e-38
17.58399963 -7.586239815 -3.734506607 2.341805152e-38
18.40800095 -7.626171589 -3.734194517 2.341805152e-38
16.12800026 -7.418879986 -3.732480049 2.341805152e-38
17.24799919 -7.539839745 -3.728853226 2.341805152e-38
16.52000046 -7.441866875 -3.728800058 2.341805152e-38
18.5359993 -7.679199696 -3.724853277 2.341805152e-38
17.69599915 -7.567146301 -3.724586487 2.341805152e-38
17.69599915 -7.600852966 -3.724586487 2.341805152e-38
16.9279995 -7.496685505 -3.724159956 2.341805152e-38
16.22400093 -7.432137489 -3.72379446 2.341805152e-38
16.22400093 -7.401234627 -3.72379446 2.341805152e-38
16.62400055 -7.457051754 -3.720609665 2.341805152e-38
17.36000061 -7.555733681 -3.720000029 2.341805152e-38
16.31999969 -7.413942814 -3.714742899 2.341805152e-38
17.03199959 -7.510300636 -3.71459794 2.341805152e-38
17.80800056 -7.547200203 -3.714240074 2.341805152e-38
17.80800056 -7.581120014 -3.714240074 2.341805152e-38
16.04000092 -7.408952713 -3.712114573 2.341805152e-38
17.47200012 -7.571199894 -3.710720062 2.341805152e-38
16.71999931 -7.436418533 -3.710247517 2.341805152e-38
18.28800011 -7.611291409 -3.709851503 2.341805152e-38
18.28800011 -7.646125793 -3.709851503 2.341805152e-38
16.42399979 -7.429904461 -3.707131386 2.341805152e-38
17.1439991 -7.527031898 -3.7063694 2.341805152e-38
17.9279995 -7.529759884 -3.705119848 2.341805152e-38
17.9279995 -7.563908577 -3.705119848 2.341805152e-38
16.12800026 -7.418879986 -3.701760054 2.341805152e-38
17.58399963 -7.586239815 -3.701013327 2.341805152e-38
18.40800095 -7.661234856 -3.699131727 2.341805152e-38
18.40800095 -7.696297646 -3.699131727 2.341805152e-38
16.52000046 -7.441866875 -3.697333336 2.341805152e-38
17.24799919 -7.539839745 -3.695999861 2.341805152e-38
16.22400093 -7.401234627 -3.692891598 2.341805152e-38
16.22400093 -7.432137489 -3.692891598 2.341805152e-38
16.9279995 -7.496685505 -3.691915989 2.341805152e-38
17.69599915 -7.600852966 -3.690879822 2.341805152e-38
17.69599915 -7.567146301 -3.690879822 2.341805152e-38
16.62400055 -7.425386906 -3.688944817 2.341805152e-38
16.62400055 -7.457051754 -3.688944817 2.341805152e-38
17.36000061 -7.58880043 -3.686933517 2.341805152e-38
17.36000061 -7.555733681 -3.686933517 2.341805152e-38
16.31999969 -7.413942814 -3.683657169 2.341805152e-38
17.03199959 -7.510300636 -3.682156086 2.341805152e-38
16.04000092 -7.408952713 -3.681562185 2.341805152e-38
16.04000092 -7.4395051 -3.681562185 2.341805152e-38
17.80800056 -7.581120014 -3.680320024 2.341805152e-38
17.80800056 -7.547200203 -3.680320024 2.341805152e-38
16.71999931 -7.436418533 -3.678399801 2.341805152e-38
17.47200012 -7.571199894 -3.677439928 2.341805152e-38
16.42399979 -7.429904461 -3.67584753 2.341805152e-38
17.1439991 -7.527031898 -3.673714161 2.341805152e-38
16.12800026 -7.44960022 -3.671040058 2.341805152e-38
16.12800026 -7.418879986 -3.671040058 2.341805152e-38
17.9279995 -7.529759884 -3.670971394 2.341805152e-38
17.9279995 -7.563908577 -3.670971394 2.341805152e-38
17.58399963 -7.586239815 -3.667519808 2.341805152e-38
16.52000046 -7.441866875 -3.665866852 2.341805152e-38
18.40800095 -7.661234856 -3.664068699 2.341805152e-38
18.40800095 -7.626171589 -3.664068699 2.341805152e-38
16.22400093 -7.401234627 -3.661988735 2.341805152e-38
16.9279995 -7.496685505 -3.65967226 2.341805152e-38
15.94400024 -7.425348759 -3.659527779 2.341805152e-38
16.62400055 -7.457051754 -3.657280207 2.341805152e-38
16.62400055 -7.425386906 -3.657280207 2.341805152e-38
17.69599915 -7.600852966 -3.657173157 2.341805152e-38
17.69599915 -7.567146301 -3.657173157 2.341805152e-38
17.36000061 -7.555733681 -3.653866768 2.341805152e-38
17.36000061 -7.58880043 -3.653866768 2.341805152e-38
16.31999969 -7.413942814 -3.65257144 2.341805152e-38
16.04000092 -7.4395051 -3.651009798 2.341805152e-38
18.16799927 -7.630559921 -3.650902748 2.341805152e-38
17.03199959 -7.510300636 -3.649714231 2.341805152e-38
16.71999931 -7.436418533 -3.646552324 2.341805152e-38
17.80800056 -7.547200203 -3.646400213 2.341805152e-38
17.80800056 -7.581120014 -3.646400213 2.341805152e-38
16.42399979 -7.429904461 -3.644563675 2.341805152e-38
17.47200012 -7.571199894 -3.644160032 2.341805152e-38
17.1439991 -7.527031898 -3.641058922 2.341805152e-38
16.12800026 -7.418879986 -3.640320063 2.341805152e-38
16.12800026 -7.388160229 -3.640320063 2.341805152e-38
18.28800011 -7.646125793 -3.640182972 2.341805152e-38
17.9279995 -7.529759884 -3.636822701 2.341805152e-38
17.9279995 -7.563908577 -3.636822701 2.341805152e-38
16.52000046 -7.441866875 -3.634400129 2.341805152e-38
17.58399963 -7.586239815 -3.634026527 2.341805152e-38
16.22400093 -7.401234627 -3.631085873 2.341805152e-38
18.40800095 -7.626171589 -3.629005909 2.341805152e-38
18.40800095 -7.661234856 -3.629005909 2.341805152e-38
16.9279995 -7.496685505 -3.627428532 2.341805152e-38
16.62400055 -7.425386906 -3.625615358 2.341805152e-38
16.62400055 -7.457051754 -3.625615358 2.341805152e-38
17.69599915 -7.567146301 -3.623466492 2.341805152e-38
17.69599915 -7.600852966 -3.623466492 2.341805152e-38
16.31999969 -7.413942814 -3.62148571 2.341805152e-38
17.36000061 -7.58880043 -3.620800018 2.341805152e-38
17.36000061 -7.555733681 -3.620800018 2.341805152e-38
16.04000092 -7.4395051 -3.620457411 2.341805152e-38
16.04000092 -7.408952713 -3.620457411 2.341805152e-38
17.03199959 -7.510300636 -3.617272377 2.341805152e-38
18.16799927 -7.630559921 -3.616297007 2.341805152e-38
16.71999931 -7.436418533 -3.614704609 2.341805152e-38
16.42399979 -7.461188316 -3.613280058 2.341805152e-38
16.42399979 -7.429904461 -3.613280058 2.341805152e-38
17.80800056 -7.581120014 -3.612480164 2.341805152e-38
17.80800056 -7.547200203 -3.612480164 2.341805152e-38
17.47200012 -7.571199894 -3.610880136 2.341805152e-38
16.12800026 -7.388160229 -3.609600067 2.341805152e-38
16.12800026 -7.418879986 -3.609600067 2.341805152e-38
17.1439991 -7.527031898 -3.608403683 2.341805152e-38
18.28800011 -7.646125793 -3.605348587 2.341805152e-38
18.28800011 -7.680960178 -3.605348587 2.341805152e-38
16.52000046 -7.473333359 -3.602933407 2.341805152e-38
16.52000046 -7.441866875 -3.602933407 2.341805152e-38
17.9279995 -7.563908577 -3.602674246 2.341805152e-38
17.58399963 -7.586239815 -3.600533247 2.341805152e-38
16.22400093 -7.401234627 -3.60018301 2.341805152e-38
16.9279995 -7.496685505 -3.595184565 2.341805152e-38
16.62400055 -7.425386906 -3.59395051 2.341805152e-38
16.62400055 -7.457051754 -3.59395051 2.341805152e-38
18.40800095 -7.626171589 -3.593943119 2.341805152e-38
18.40800095 -7.661234856 -3.593943119 2.341805152e-38
16.04000092 -7.408952713 -3.589905024 2.341805152e-38
17.69599915 -7.567146301 -3.589759827 2.341805152e-38
17.69599915 -7.600852966 -3.589759827 2.341805152e-38
17.36000061 -7.58880043 -3.587733507 2.341805152e-38
17.36000061 -7.555733681 -3.587733507 2.341805152e-38
17.03199959 -7.510300636 -3.584830284 2.341805152e-38
16.71999931 -7.436418533 -3.582856894 2.341805152e-38
16.42399979 -7.461188316 -3.581996202 2.341805152e-38
16.12800026 -7.388160229 -3.578880072 2.341805152e-38
17.80800056 -7.581120014 -3.578560114 2.341805152e-38
17.80800056 -7.547200203 -3.578560114 2.341805152e-38
17.47200012 -7.571199894 -3.577600002 2.341805152e-38
17.1439991 -7.527031898 -3.575748444 2.341805152e-38
16.52000046 -7.473333359 -3.571466684 2.341805152e-38
16.52000046 -7.441866875 -3.571466684 2.341805152e-38
18.28800011 -7.680960178 -3.570514202 2.341805152e-38
18.28800011 -7.646125793 -3.570514202 2.341805152e-38
16.22400093 -7.401234627 -3.569280148 2.341805152e-38
17.9279995 -7.563908577 -3.568525553 2.341805152e-38
17.58399963 -7.586239815 -3.567039967 2.341805152e-38
16.9279995 -7.496685505 -3.562940836 2.341805152e-38
16.62400055 -7.457051754 -3.5622859 2.341805152e-38
16.62400055 -7.425386906 -3.5622859 2.341805152e-38
16.04000092 -7.378400326 -3.559352636 2.341805152e-38
16.31999969 -7.445028305 -3.559314251 2.341805152e-38
18.40800095 -7.661234856 -3.558880091 2.341805152e-38
18.40800095 -7.626171589 -3.558880091 2.341805152e-38
17.69599915 -7.567146301 -3.556053162 2.341805152e-38
17.69599915 -7.600852966 -3.556053162 2.341805152e-38
17.36000061 -7.555733681 -3.554666758 2.341805152e-38
17.03199959 -7.510300636 -3.55238843 2.341805152e-38
16.71999931 -7.436418533 -3.551009417 2.341805152e-38
16.42399979 -7.461188316 -3.550712347 2.341805152e-38
16.12800026 -7.388160229 -3.548160076 2.341805152e-38
17.80800056 -7.547200203 -3.544640064 2.341805152e-38
17.80800056 -7.581120014 -3.544640064 2.341805152e-38
17.47200012 -7.571199894 -3.544320107 2.341805152e-38
17.1439991 -7.527031898 -3.543093204 2.341805152e-38
16.8239994 -7.482674122 -3.541051388 2.341805152e-38
16.52000046 -7.473333359 -3.5400002 2.341805152e-38
16.52000046 -7.441866875 -3.5400002 2.341805152e-38
18.28800011 -7.646125793 -3.535680056 2.341805152e-38
18.28800011 -7.680960178 -3.535680056 2.341805152e-38
17.9279995 -7.563908577 -3.534377098 2.341805152e-38
17.24799919 -7.539839745 -3.531733274 2.341805152e-38
16.9279995 -7.496685505 -3.530697107 2.341805152e-38
16.62400055 -7.425386906 -3.530621052 2.341805152e-38
16.62400055 -7.457051754 -3.530621052 2.341805152e-38
16.04000092 -7.378400326 -3.528800249 2.341805152e-38
16.31999969 -7.445028305 -3.528228521 2.341805152e-38
18.40800095 -7.626171589 -3.523817301 2.341805152e-38
18.40800095 -7.661234856 -3.523817301 2.341805152e-38
18.04800034 -7.614537239 -3.523657322 2.341805152e-38
17.69599915 -7.567146301 -3.522346497 2.341805152e-38
17.36000061 -7.555733681 -3.521600008 2.341805152e-38
17.03199959 -7.510300636 -3.519946575 2.341805152e-38
16.42399979 -7.461188316 -3.519428492 2.341805152e-38
