# .PCD v0.7 - Point Cloud Data file format
VERSION 0.7
FIELDS x y z rgb
SIZE 4 4 4 4
TYPE F F F F
COUNT 1 1 1 1
WIDTH 899
HEIGHT 1
VIEWPOINT 0 0 0 1 0 0 0
POINTS 899
DATA ascii
25.56517612 -7.689493179 -0.992696457 2.341805152e-38
33.11199951 -7.978415108 -7.17111311 2.341805152e-38
58.65599823 -10.81877327 1.917958061 2.341805152e-38
29.02900076 -7.962128818 -4.053845838 2.341805152e-38
22.29772996 7.106449269 -2.519031178 2.341805152e-38
26.39999962 -7.618285656 -3.972571373 2.341805152e-38
28.18400023 -7.862518328 -3.518083705 2.341805152e-38
26.01422204 -7.683025572 -3.518113865 2.341805152e-38
44.38399887 2.18749705 -1.542872325 2.341805152e-38
24.58092249 -7.485826437 -3.489994957 2.341805152e-38
27.10133298 -7.757481363 -3.527590248 2.341805152e-38
27.57929432 -7.810169248 -3.499437557 2.341805152e-38
28.6079998 -7.874011517 -3.553619555 2.341805152e-38
44.38399887 2.155794144 0.549516201 2.341805152e-38
45.87200165 2.927070618 -2.009630501 2.341805152e-38
25.09049928 -7.547949851 -3.530443251 2.341805152e-38
30.52799988 -8.189256986 -2.558537126 2.341805152e-38
46.65599823 2.888228416 -2.399451256 2.341805152e-38
29.03680077 -7.953246737 -3.489685464 2.341805152e-38
25.92654488 -7.674667098 -3.032795733 2.341805152e-38
44.38399887 2.198064685 -1.986712322 2.341805152e-38
28.20502881 -7.907148947 -3.010886771 2.341805152e-38
45.87200165 2.892120552 -2.568832111 2.341805152e-38
25.05279922 -7.575400949 -3.013378954 2.341805152e-38
27.07111083 -7.783174462 -3.09625819 2.341805152e-38
22.20503699 7.462228157 -4.520387067 2.341805152e-38
25.6239996 -7.695270856 -1.968637466 2.341805152e-38
27.65066655 -7.887770812 -3.028406382 2.341805152e-38
43.68000031 3.203200102 -3.494400024 2.341805152e-38
26.51733292 -7.694105307 -2.938026627 2.341805152e-38
29.0784008 -7.981217734 -3.033181524 2.341805152e-38
26.01249981 -7.633313715 -3.019424245 2.341805152e-38
44.38399887 1.416060954 -3.085744679 2.341805152e-38
24.66879978 3.716714644 1.879335606 2.341805152e-38
25.06771353 -7.57304556 -2.515182231 2.341805152e-38
28.10344847 -7.904801747 -2.525994654 2.341805152e-38
43.68000031 3.228800095 -3.024000021 2.341805152e-38
18.61320641 -7.534074783 -7.015912571 2.341805152e-38
26.4769996 -7.730747402 -2.519450446 2.341805152e-38
25.9659996 -7.678428411 -2.497740924 2.341805152e-38
25.90399933 -7.623177052 -2.664411426 2.341805152e-38
31.58399963 3.338880062 -4.542079926 2.341805152e-38
44.38399887 -10.39684601 0.5833325577 2.341805152e-38
27.68799973 -7.894949913 -2.489624381 2.341805152e-38
26.98799992 -7.775017142 -2.48030628 2.341805152e-38
58.65599823 -11.03291392 -0.5586285666 2.341805152e-38
22.49600029 7.103282365 -1.782150637 2.341805152e-38
29.19563727 -8.076180978 -2.5554287 2.341805152e-38
28.6079998 -7.98299408 -2.397622824 2.341805152e-38
28.6079998 -7.996617079 -2.07067427 2.341805152e-38
43.68000031 3.265600085 -2.454400063 2.341805152e-38
18.64168809 -7.535648569 -5.533979989 2.341805152e-38
22.26800013 7.578119397 -1.724816501 2.341805152e-38
26.4879996 -7.750043357 -1.9985312 2.341805152e-38
24.66782586 3.739380816 1.441407188 2.341805152e-38
25.11466599 -7.626405645 -2.010020976 2.341805152e-38
15.31999969 -7.16392374 -6.740799665 2.341805152e-38
27.05599976 -7.816134612 -2.043885658 2.341805152e-38
27.62733332 -7.906624118 -2.000026027 2.341805152e-38
26.04988233 -7.733141619 -2.018130632 2.341805152e-38
28.14400021 -7.953853448 -2.016935244 2.341805152e-38
29.0784008 -8.084570821 -2.003284359 2.341805152e-38
27.60400009 -7.928093127 -1.524392366 2.341805152e-38
43.68000031 3.17546673 -1.986895209 2.341805152e-38
22.19914887 7.507082239 -2.005808129 2.341805152e-38
18.73381788 -7.409794539 -7.919426545 2.341805152e-38
26.55230728 -7.79824079 -1.517748544 2.341805152e-38
24.64639969 3.745190954 0.9736740375 2.341805152e-38
25.04980567 -7.608679064 -1.51839602 2.341805152e-38
24.61279955 -7.59704535 -1.523649496 2.341805152e-38
25.44799976 -7.629511738 -1.546433496 2.341805152e-38
15.48799992 -7.153980732 -6.785219193 2.341805152e-38
27.10699964 -7.857719898 -1.471296191 2.341805152e-38
43.68000031 3.172945521 -5.007127133 2.341805152e-38
22.31200027 7.437333345 -6.778598309 2.341805152e-38
25.51999969 -7.72730004 -0.5034859598 2.341805152e-38
29.06800079 -8.108424711 -1.530840421 2.341805152e-38
25.99257115 -7.730471339 -1.545625559 2.341805152e-38
24.16639977 -7.697864119 1.409876307 2.341805152e-38
21.19519943 -7.186919041 -3.522857656 2.341805152e-38
44.38399887 2.169884324 -3.508449435 2.341805152e-38
31.07733377 -8.208129883 -3.452990532 2.341805152e-38
46.65599823 0.7553828359 0.5332114249 2.341805152e-38
28.6079998 -8.037486076 -1.580251426 2.341805152e-38
24.95999908 -7.698189284 -0.9921443149 2.341805152e-38
45.87200165 3.451321999 0.04368761927 2.341805152e-38
24.63099962 3.761936113 0.5307552321 2.341805152e-38
25.08063927 -7.634897633 -1.044298022 2.341805152e-38
25.99418155 -7.748741843 -1.014409694 2.341805152e-38
24.24199963 -7.699643731 0.9987580702 2.341805152e-38
21.0935997 -7.189666796 -3.903203773 2.341805152e-38
44.38399887 2.198064685 -4.015695125 2.341805152e-38
27.04088868 -7.883221096 -1.027251634 2.341805152e-38
43.68000031 -9.85254425 -0.9934080076 2.341805152e-38
20.1760006 -7.167284012 -1.633295274 2.341805152e-38
24.0636442 3.979676697 -5.51175749 2.341805152e-38
28.12417412 -8.020202098 -1.025854743 2.341805152e-38
27.54036401 -7.947313656 -1.027538012 2.341805152e-38
33.9280014 -8.508098822 1.409316971 2.341805152e-38
47.4640007 4.068342884 0.4972419083 2.341805152e-38
44.38399887 1.31038475 1.014491409 2.341805152e-38
58.65599823 -10.89325714 1.00553141 2.341805152e-38
29.04200077 -8.110836466 -1.016426697 2.341805152e-38
24.56799936 -7.633561909 -1.070689499 2.341805152e-38
28.6079998 -8.091977119 -0.8991085768 2.341805152e-38
25.98030736 -7.773035526 -0.4816152304 2.341805152e-38
24.29599953 -7.705302715 0.7173104882 2.341805152e-38
44.38399887 2.134658933 -2.515093267 2.341805152e-38
18.92000008 -7.189599991 -2.252380848 2.341805152e-38
26.98276916 -7.89315231 -0.531567475 2.341805152e-38
43.68000031 -9.755200386 -1.352000028 2.341805152e-38
24.6239996 3.752121806 -0.02345142852 2.341805152e-38
25.03138381 -7.637686913 -0.5852178564 2.341805152e-38
18.19623521 -7.711468893 0.06772302398 2.341805152e-38
29.11257226 -8.143462113 -0.5661349807 2.341805152e-38
15.15639468 -7.220238854 -5.983660268 2.341805152e-38
16.05272171 -7.423089254 -3.003558792 2.341805152e-38
28.6079998 -8.10559988 -0.5312914215 2.341805152e-38
31.58399963 -8.246933381 -4.075839957 2.341805152e-38
20.12109132 -7.180733312 -0.05773402818 2.341805152e-38
24.05836339 3.962520616 -5.053990104 2.341805152e-38
28.24000025 -8.087268066 -0.5030849636 2.341805152e-38
44.38399887 4.068924648 -3.564810055 2.341805152e-38
29.09028653 -8.196586745 -0.376069665 2.341805152e-38
24.56799936 -7.639398098 -0.3391923755 2.341805152e-38
24.6115551 -7.643801106 -0.1745472997 2.341805152e-38
18.28800011 -7.433100737 1.651949034 2.341805152e-38
29.02342933 -8.18960401 -0.06740190727 2.341805152e-38
18.92000008 -7.233146012 -2.639790475 2.341805152e-38
27.07373884 -7.926879966 0.0371567696 2.341805152e-38
43.68000031 -9.859200287 1.871999979 2.341805152e-38
26.03753838 -7.795898071 0.03983413772 2.341805152e-38
44.38399887 2.240335226 -3.085744667 2.341805152e-38
24.63999966 -7.707010474 0.1005365976 2.341805152e-38
31.95199966 -8.283175659 -4.01073668 2.341805152e-38
43.68000031 3.577600002 -5.408000231 2.341805152e-38
58.65599823 -11.1167078 -2.178651333 2.341805152e-38
18.17942842 -7.767011608 0.4570753723 2.341805152e-38
22.62338492 7.088363941 -1.738586398 2.341805152e-38
29.12800085 -8.14504418 0.01462095245 2.341805152e-38
16.05298969 -7.45797688 -2.009732313 2.341805152e-38
28.6079998 -8.091977119 0.4359314243 2.341805152e-38
58.65599823 -11.1167078 -1.396571398 2.341805152e-38
18.14646129 -7.749765714 1.005074281 2.341805152e-38
29.06800079 -8.138891697 0.4706247739 2.341805152e-38
24.58666611 -7.641285102 0.3825066619 2.341805152e-38
62.68000031 -11.16300964 -3.342933416 2.341805152e-38
30.52799988 3.238875453 -0.5213988562 2.341805152e-38
26.03927266 -7.629022251 -4.554144404 2.341805152e-38
24.60423481 -7.709251656 0.5420226227 2.341805152e-38
43.68000031 3.577600002 -2.995199998 2.341805152e-38
25.10914217 -7.754708392 0.4680342717 2.341805152e-38
30.07199996 -8.235791002 0.04890449026 2.341805152e-38
64.15200043 -11.66955471 -4.032411575 2.341805152e-38
25.98984586 -7.846312908 0.5216764739 2.341805152e-38
27.04952358 -7.938041573 0.467393377 2.341805152e-38
43.68000031 -9.903573545 1.505920017 2.341805152e-38
16.05726359 -7.444048451 -2.540241072 2.341805152e-38
28.6079998 -8.091977119 0.9263542816 2.341805152e-38
52.97600174 -10.4774758 -4.053084612 2.341805152e-38
45.11999893 -9.668571472 -3.523657084 2.341805152e-38
42.32799911 1.955150396 0.3628114201 2.341805152e-38
30.04800006 -8.229276793 -0.5394808203 2.341805152e-38
58.65599823 -10.93049908 -0.9496685266 2.341805152e-38
18.17294833 -7.753488934 1.507398635 2.341805152e-38
29.09920082 -8.142090988 0.8648045957 2.341805152e-38
27.06143974 -7.953332787 0.9741869617 2.341805152e-38
26.02799988 -7.853341276 0.9646832916 2.341805152e-38
26.02799988 -7.63476181 -4.015748549 2.341805152e-38
24.6239996 -7.73886466 0.9849599749 2.341805152e-38
25.98666636 -7.571159436 -5.512626 2.341805152e-38
24.63418146 -7.716471564 1.478050882 2.341805152e-38
29.12547453 -8.220707391 1.493674642 2.341805152e-38
27.05599976 -7.994801175 1.538817655 2.341805152e-38
26.04988233 -7.861569966 1.484211087 2.341805152e-38
17.9279995 -7.632205486 -0.341485709 2.341805152e-38
22.49600029 7.605790615 -6.2988801 2.341805152e-38
29.11257226 -8.238462516 1.85368331 2.341805152e-38
26.02799988 7.138990561 1.27251935 2.341805152e-38
28.21600024 -8.106379827 1.87217019 2.341805152e-38
27.0799997 -7.972090609 1.846235479 2.341805152e-38
43.68000031 -9.824941467 0.05138823631 2.341805152e-38
26.04349995 -7.611362278 -5.041140988 2.341805152e-38
24.64639969 -7.722538567 1.854604197 2.341805152e-38
25.97839966 -7.867673016 1.855552721 2.341805152e-38
24.07999992 -7.682666779 1.995200038 2.341805152e-38
44.38399887 2.240335226 -4.987916072 2.341805152e-38
31.22400093 -8.227276802 -3.955040097 2.341805152e-38
46.65599823 0.7553828359 1.021988511 2.341805152e-38
62.68000031 -11.34209538 -3.522019148 2.341805152e-38
30.52799988 3.343542814 -6.396342874 2.341805152e-38
21.15999947 -7.182244253 -2.007210588 2.341805152e-38
22.07378439 4.594867937 -3.004691146 2.341805152e-38
30.87199974 3.322415113 -6.38021342 2.341805152e-38
45.11999893 1.267657071 0.04297142662 2.341805152e-38
22.61866697 -7.425534441 -0.04003083919 2.341805152e-38
47.4640007 -9.951295716 -1.543387243 2.341805152e-38
24.08299971 -7.6346066 1.874879993 2.341805152e-38
31.58399963 3.338880062 -6.346879959 2.341805152e-38
44.38399887 1.433353424 -1.502523249 2.341805152e-38
44.38399887 -10.56761885 -1.733089447 2.341805152e-38
26.04177772 3.800018911 -3.9986424 2.341805152e-38
32.32799911 3.294377089 -6.311656952 2.341805152e-38
47.4640007 2.634736419 0.5618187785 2.341805152e-38
30.52799988 3.401691437 -6.022850073 2.341805152e-38
47.4640007 4.38476944 1.943763852 2.341805152e-38
26.02799988 3.809873521 -3.559615254 2.341805152e-38
32.32799911 3.263588548 -6.034559727 2.341805152e-38
47.4640007 2.667024851 -0.9944837987 2.341805152e-38
31.95199966 3.264755283 -6.003498146 2.341805152e-38
24.0606313 -7.647154582 1.533136029 2.341805152e-38
31.58399963 3.338880062 -6.166399956 2.341805152e-38
44.38399887 1.448724487 -2.094309894 2.341805152e-38
44.38399887 -10.56761885 -1.859900892 2.341805152e-38
33.52000046 3.351999998 -6.225142956 2.341805152e-38
21.13499963 -7.210844517 -1.502202835 2.341805152e-38
22.08397209 4.593713093 -2.51981238 2.341805152e-38
30.98933347 3.305417101 -5.873328288 2.341805152e-38
22.6110003 -7.434597254 0.4589042952 2.341805152e-38
47.4640007 -9.990041733 -0.04520381093 2.341805152e-38
26.01517223 3.79061939 -5.029665158 2.341805152e-38
32.32799911 3.232800007 -5.757462502 2.341805152e-38
21.18896498 -7.191609333 -2.987341248 2.341805152e-38
22.31200027 4.589897275 -6.013615218 2.341805152e-38
30.9755295 3.302228297 -5.530036113 2.341805152e-38
22.59751754 -7.439625987 1.014511411 2.341805152e-38
47.4640007 -10.0352459 -0.4972419068 2.341805152e-38
30.52799988 3.387154281 -5.524114251 2.341805152e-38
31.95199966 3.200271696 -4.950024068 2.341805152e-38
22.00123911 4.60945025 -1.522421225 2.341805152e-38
31.04800034 3.311619043 -5.056220978 2.341805152e-38
33.11199951 -8.609119415 0.9775923661 2.341805152e-38
47.4640007 -9.80922699 -2.983451486 2.341805152e-38
30.52799988 3.379078084 -5.029851437 2.341805152e-38
31.58399963 3.338880062 -4.812799931 2.341805152e-38
30.52799988 3.412263914 -4.53294546 2.341805152e-38
47.4640007 4.38476944 1.446521878 2.341805152e-38
31.95199966 3.214218989 -4.518925697 2.341805152e-38
51 -10.2485714 -1.991428542 2.341805152e-38
31.58399963 3.278719902 -4.481919902 2.341805152e-38
26.0167271 3.61969937 1.871794267 2.341805152e-38
32.46514293 3.1713241 -4.505482503 2.341805152e-38
47.4640007 2.58725343 -1.550224788 2.341805152e-38
44.38399887 -10.77897072 -1.056761881 2.341805152e-38
32.43138445 3.152690988 -4.010422881 2.341805152e-38
31.58399963 3.371273866 -3.963618425 2.341805152e-38
31.95199966 3.377782822 -3.803809404 2.341805152e-38
31.58399963 3.399039984 -3.659733322 2.341805152e-38
44.38399887 1.471781102 -2.486272487 2.341805152e-38
30.52799988 3.438695106 -3.480984905 2.341805152e-38
31.95199966 3.155819346 -3.642706969 2.341805152e-38
45.87200165 -9.567588806 -4.630887747 2.341805152e-38
31.95199966 3.377782822 -3.742948532 2.341805152e-38
31.08000044 3.266524001 -3.035283132 2.341805152e-38
44.38399887 1.31038475 -0.8454095125 2.341805152e-38
30.52799988 3.285394192 -3.081874251 2.341805152e-38
26.01559982 3.582596946 1.486711985 2.341805152e-38
32.32799911 3.048068523 -2.924914122 2.341805152e-38
46.65599823 2.888228416 -4.665599823 2.341805152e-38
47.4640007 2.667024851 -2.034171486 2.341805152e-38
44.38399887 -10.69443035 -1.733089447 2.341805152e-38
21.12799956 -7.318968873 1.841525793 2.341805152e-38
31.08990524 3.297720126 -2.544995274 2.341805152e-38
30.52799988 3.343542814 -2.537769794 2.341805152e-38
49.16799927 0.9365333319 -0.234133333 2.341805152e-38
31.58399963 3.170431967 -2.453324757 2.341805152e-38
47.4640007 4.079643846 0.9266781062 2.341805152e-38
30.87199974 3.38121891 -2.528563857 2.341805152e-38
44.38399887 2.240335226 -5.410620809 2.341805152e-38
31.03764736 3.284423982 -2.025622845 2.341805152e-38
47.4640007 4.101754417 1.515310339 2.341805152e-38
44.38399887 1.225843787 1.902171373 2.341805152e-38
62.68000031 -11.40179062 -1.134209514 2.341805152e-38
30.52799988 3.343542814 -2.180571397 2.341805152e-38
30.52799988 -7.443017125 -7.297645569 2.341805152e-38
25.99847594 3.597224474 0.5011729626 2.341805152e-38
32.32799911 3.048068523 -1.878102779 2.341805152e-38
21.1411609 -7.333314942 0.9877456061 2.341805152e-38
31.13600063 3.246914387 -1.556422879 2.341805152e-38
33.9280014 -8.498156548 1.777181029 2.341805152e-38
47.4640007 4.11919719 0.1299609554 2.341805152e-38
44.38399887 1.278681889 1.542872325 2.341805152e-38
26.05555556 3.689026528 -1.008895248 2.341805152e-38
32.32799911 3.048068523 -1.570217133 2.341805152e-38
30.52799988 3.227245808 -1.424639988 2.341805152e-38
62.68000031 -11.16300964 -2.029638082 2.341805152e-38
30.52799988 3.245137618 -0.9728703315 2.341805152e-38
21.10986633 -7.200322353 -2.543244335 2.341805152e-38
22.30952139 4.58818073 -5.527575963 2.341805152e-38
31.02285739 3.194978986 -1.030038642 2.341805152e-38
52.97600174 -10.14111996 1.261333346 2.341805152e-38
22.57909707 -7.464505426 1.505986875 2.341805152e-38
47.4640007 -10.08045006 1.084891438 2.341805152e-38
25.99152913 3.694098851 -0.4992636319 2.341805152e-38
32.32799911 3.048068523 -0.8928685188 2.341805152e-38
22.29340866 4.585649487 -5.022175127 2.341805152e-38
31.04800034 3.151843023 -0.5025813371 2.341805152e-38
52.97600174 -10.14111996 0.958613348 2.341805152e-38
22.55733363 -7.32576259 -2.012101597 2.341805152e-38
47.4640007 -10.08045006 0.3164266646 2.341805152e-38
22.25258606 4.594544793 -4.509726099 2.341805152e-38
31.02600026 3.135677114 -0.003528570756 2.341805152e-38
22.57347398 -7.346791042 -1.480923132 2.341805152e-38
47.4640007 -10.08045006 1.853356242 2.341805152e-38
30.52799988 3.198171496 -0.02907428477 2.341805152e-38
32.32799911 3.109645605 -0.09236571193 2.341805152e-38
31.95199966 3.095609318 0.07469298623 2.341805152e-38
30.52799988 3.230153167 0.5000777125 2.341805152e-38
31.13013395 3.112767522 0.462469089 2.341805152e-38
22.6480003 -7.377685899 -1.02476291 2.341805152e-38
47.4640007 -10.08045006 1.491725731 2.341805152e-38
31.07733377 3.122294605 0.9421346138 2.341805152e-38
31.58399963 3.170431967 -2.111615977 2.341805152e-38
30.52799988 3.188480059 0.9497599999 2.341805152e-38
31.95199966 3.065870434 1.521523789 2.341805152e-38
25.0970902 8.406886968 -0.9299764227 2.341805152e-38
31.0656004 3.094497538 1.467436206 2.341805152e-38
42.32799911 3.829676151 -2.418742776 2.341805152e-38
31.95199966 3.012617111 1.795398076 2.341805152e-38
25.19199944 8.452283582 -0.5317021041 2.341805152e-38
31.14577844 3.074779285 1.898446593 2.341805152e-38
45.11999893 1.33211422 -2.49234283 2.341805152e-38
31.58399963 3.190485319 -3.042090654 2.341805152e-38
30.52799988 3.18072691 1.843309712 2.341805152e-38
29.22400093 -7.125089645 -7.403413534 2.341805152e-38
29.22400093 -7.709569931 -7.319916248 2.341805152e-38
31.58399963 -7.550079981 -7.309440136 2.341805152e-38
30.52799988 -7.762834231 -7.297645569 2.341805152e-38
25.03733253 3.766274645 -1.99494707 2.341805152e-38
31.00825827 -7.877239781 -7.095856713 2.341805152e-38
32.54133394 -8.222872681 -5.557744874 2.341805152e-38
30.52799988 -7.886400044 -7.043245673 2.341805152e-38
32.45254053 -7.974687267 -7.059101814 2.341805152e-38
25.17266607 3.863770644 -4.027424037 2.341805152e-38
23.53066699 -7.555948099 0.9451733331 2.341805152e-38
33.9280014 -8.078095436 -7.14103651 2.341805152e-38
33.9280014 -8.243965721 -7.029020214 2.341805152e-38
21.74581159 4.165736725 0.494583002 2.341805152e-38
33.52000046 -8.236342907 -6.927466631 2.341805152e-38
32.47733349 -8.12767246 -6.512551175 2.341805152e-38
25.03733253 3.749564916 -1.504165669 2.341805152e-38
31.06153884 -8.003110556 -6.528100344 2.341805152e-38
30.52799988 -7.937280178 -6.512639999 2.341805152e-38
33.11199951 -8.230696678 -6.653934956 2.341805152e-38
32.40479965 -8.153430557 -6.073819399 2.341805152e-38
30.52799988 -8.009965897 -6.018377066 2.341805152e-38
32.48968446 -8.411283192 1.555114602 2.341805152e-38
31.58399963 -8.121600151 -6.015999973 2.341805152e-38
31.06755596 -8.087253518 -5.966595623 2.341805152e-38
32.32799911 -8.158970833 -5.603519797 2.341805152e-38
31.08320045 -8.093258858 -5.553478193 2.341805152e-38
30.52799988 -8.075942186 -5.512931824 2.341805152e-38
29.5359993 3.488060832 -3.881874204 2.341805152e-38
46.65599823 2.699382752 -4.543405473 2.341805152e-38
33.52000046 -8.284228563 -5.45897153 2.341805152e-38
33.11199951 -8.293767929 -5.424060941 2.341805152e-38
31.58399963 -8.211839676 -5.324160099 2.341805152e-38
19.13313346 -7.000863226 -6.973420401 2.341805152e-38
42.99200058 1.719680011 -3.193691492 2.341805152e-38
31.58399963 -8.211839676 -5.023359934 2.341805152e-38
42.99200058 1.719680011 -3.521249572 2.341805152e-38
30.87199974 -8.085523605 -5.027725644 2.341805152e-38
30.52799988 -8.059392262 -5.006591988 2.341805152e-38
46.65599823 2.71049131 -5.004916191 2.341805152e-38
25.02105181 3.912914935 -6.52668451 2.341805152e-38
32.32799911 -8.158970833 -5.110902786 2.341805152e-38
42.99200058 3.930697203 -0.2047238052 2.341805152e-38
33.52000046 -8.432446071 -4.984674931 2.341805152e-38
33.52000046 -8.48436605 -4.49634585 2.341805152e-38
25.03921872 3.631081145 -7.484815051 2.341805152e-38
30.87199974 -8.131259706 -4.544227706 2.341805152e-38
32.45600001 -8.493457688 1.012878723 2.341805152e-38
31.58399963 -8.151679993 -4.692479849 2.341805152e-38
24.69333322 6.762932142 -1.474625281 2.341805152e-38
31.95199966 -8.240573025 -4.509796524 2.341805152e-38
33.52000046 -8.481091817 -4.064965149 2.341805152e-38
29.5359993 -8.223196983 1.575253308 2.341805152e-38
32.41333305 -8.331354777 -4.009658416 2.341805152e-38
30.87199974 -8.144327164 -4.028060913 2.341805152e-38
33.11199951 -8.455948693 -3.896854401 2.341805152e-38
32.66400146 -8.360326171 -3.499325871 2.341805152e-38
33.52000046 -8.459809303 -3.511619121 2.341805152e-38
29.97818219 -8.012276519 -3.537637429 2.341805152e-38
26.51733292 -7.688518047 -3.995591084 2.341805152e-38
18.72484294 -7.492139547 -3.499557941 2.341805152e-38
43.68000031 3.138909134 -0.4651636305 2.341805152e-38
30.52799988 -8.111725807 -3.605211377 2.341805152e-38
29.5359993 3.473996103 -6.118171334 2.341805152e-38
46.65599823 2.601114567 -2.553262325 2.341805152e-38
32.51165257 -8.45548439 -0.009354534033 2.341805152e-38
31.58399963 -8.151679993 -3.429119945 2.341805152e-38
42.32799911 1.733432333 1.451245666 2.341805152e-38
30.87199974 -8.144327164 -3.322415113 2.341805152e-38
30.87199974 -8.144327164 -3.097000559 2.341805152e-38
24.5519993 6.704087939 -0.0617044898 2.341805152e-38
31.95199966 -8.283175659 -3.109994602 2.341805152e-38
33.52000046 -8.494188749 -2.94435756 2.341805152e-38
32.48160019 -8.366633224 -2.959385904 2.341805152e-38
30.52799988 -8.169874191 -2.921965718 2.341805152e-38
47.4640007 2.667024851 1.491725731 2.341805152e-38
46.65599823 2.910445571 -3.97686851 2.341805152e-38
29.98200035 -8.080862641 -2.56928578 2.341805152e-38
32.45600001 -8.376495361 -2.513889531 2.341805152e-38
42.32799911 3.921818767 -1.076916431 2.341805152e-38
33.52000046 -8.40128239 -2.569866717 2.341805152e-38
24.60363587 6.737649658 0.5494316735 2.341805152e-38
31.95199966 -8.368380547 -2.43443807 2.341805152e-38
42.32799911 3.95061326 -0.685310483 2.341805152e-38
33.52000046 -8.459809303 -2.021841301 2.341805152e-38
32.50254579 -8.396983103 -2.037086779 2.341805152e-38
31.95199966 -8.368380547 -2.008411422 2.341805152e-38
30.19199944 -8.194971085 -2.012799978 2.341805152e-38
43.68000031 3.952000062 -5.408000231 2.341805152e-38
32.47569246 -8.338628659 -1.50366243 2.341805152e-38
30.19199944 -8.194971085 -1.545542821 2.341805152e-38
18.79199982 -7.677874088 -4.6353599 2.341805152e-38
43.68000031 1.584581841 -0.5294545401 2.341805152e-38
31.95199966 -8.35620842 -1.509351599 2.341805152e-38
30.52799988 -8.21057806 -1.564196575 2.341805152e-38
21.68464522 4.147335872 1.873312687 2.341805152e-38
29.8560009 -8.160640717 -1.450148617 2.341805152e-38
25.04506588 3.932321636 -6.024997632 2.341805152e-38
32.7120018 -8.131269455 -1.464251518 2.341805152e-38
29.5359993 -8.18569088 -1.378346682 2.341805152e-38
43.68000031 3.571657147 -3.495588596 2.341805152e-38
29.5359993 -8.18569088 -1.097051362 2.341805152e-38
25.07599926 -7.75352933 1.448725035 2.341805152e-38
43.68000031 3.577600002 -3.993600051 2.341805152e-38
31.00609543 -8.297630174 -0.9996150562 2.341805152e-38
31.95199966 -8.368380547 -1.075210154 2.341805152e-38
30.1079998 -8.236548424 -0.9107085615 2.341805152e-38
18.7066664 -7.710625796 -2.931913949 2.341805152e-38
43.68000031 1.467885699 -0.02971428633 2.341805152e-38
31.58399963 -8.344191933 -1.05881598 2.341805152e-38
29.8560009 -8.160640717 -1.137371451 2.341805152e-38
30.52799988 -8.270312309 -1.012313761 2.341805152e-38
46.65599823 2.690742784 -1.525577095 2.341805152e-38
45.11999893 2.50666666 -5.027656979 2.341805152e-38
47.4640007 -9.80922699 -5.108030478 2.341805152e-38
31.58399963 -8.392319838 -0.5715199908 2.341805152e-38
31.05835331 -8.335980696 -0.5446736181 2.341805152e-38
29.8560009 -7.353106403 -7.250742912 2.341805152e-38
33.52000046 -8.490052976 -0.5662275741 2.341805152e-38
25.54399967 3.635525889 0.9945134322 2.341805152e-38
33.11199951 -8.504002253 -0.4940520492 2.341805152e-38
31.95199966 -8.449529012 -0.4463136444 2.341805152e-38
29.8560009 -8.160640717 -0.3412114382 2.341805152e-38
29.5359993 -8.129431725 -0.337554276 2.341805152e-38
31.04800034 -8.36817503 -0.05830094963 2.341805152e-38
21.63306681 -7.385318534 1.880310861 2.341805152e-38
30.52799988 -8.286170959 0.01744457185 2.341805152e-38
46.65599823 2.42166841 1.555199951 2.341805152e-38
23.12626051 7.483488041 -1.684219635 2.341805152e-38
29.8560009 -8.160640717 -0.1194240034 2.341805152e-38
54.02399826 -10.75334835 0 2.341805152e-38
29.5359993 -8.129431725 -0.1181439996 2.341805152e-38
45.11999893 2.363428593 -4.082285595 2.341805152e-38
47.4640007 -9.80922699 -5.831291676 2.341805152e-38
31.95199966 -8.441414261 -0.03651657104 2.341805152e-38
31.58399963 -8.441863565 0.02654117609 2.341805152e-38
21.68151904 4.575427236 1.871161034 2.341805152e-38
30.05760002 -8.295786667 0.4521843811 2.341805152e-38
43.68000031 1.423999988 1.513600019 2.341805152e-38
30.52799988 -8.329782963 0.508799995 2.341805152e-38
46.65599823 2.586075258 -2.061750793 2.341805152e-38
31.58399963 -8.399839759 0.4286399968 2.341805152e-38
31.95199966 -8.436004427 0.5105557574 2.341805152e-38
25.57257107 3.656607299 -0.001207437455 2.341805152e-38
33.11199951 -8.437109167 0.5131643144 2.341805152e-38
45.11999893 1.246171355 0.9883428335 2.341805152e-38
47.4640007 -9.854430676 -4.475177169 2.341805152e-38
28.28320026 3.507149696 -0.9429378927 2.341805152e-38
33.52000046 -8.447040176 0.4788571437 2.341805152e-38
33.9280014 -8.692030907 0.5816228911 2.341805152e-38
32.45600001 -7.974902789 0.6493637959 2.341805152e-38
28.19680023 3.442607307 -0.5422552486 2.341805152e-38
33.52000046 -8.474832591 0.9783708699 2.341805152e-38
30.99520016 -8.315420151 0.9946156234 2.341805152e-38
33.9280014 -8.704955864 0.9564465225 2.341805152e-38
31.95199966 -8.436849713 0.9205219001 2.341805152e-38
30.03388248 -8.25620713 0.9876732861 2.341805152e-38
43.68000031 1.45600001 1.871999979 2.341805152e-38
32.7120018 -8.037806034 0.7788571715 2.341805152e-38
21.58622238 -7.373399761 0.9868685851 2.341805152e-38
30.52799988 -8.297800827 1.000155425 2.341805152e-38
46.65599823 2.522879865 0.4196571277 2.341805152e-38
45.87200165 2.752320051 -1.048502892 2.341805152e-38
31.58399963 -8.377279758 1.022719979 2.341805152e-38
30.02400017 -8.292153922 1.450379231 2.341805152e-38
31.95199966 -8.411852973 1.486746107 2.341805152e-38
30.52799988 -8.327706201 1.39971917 2.341805152e-38
46.65599823 2.408338118 0.9864410996 2.341805152e-38
31.22400093 -7.612708807 -7.285600185 2.341805152e-38
33.9280014 -8.692030907 1.292495251 2.341805152e-38
36.65599823 -8.692708015 -6.737721443 2.341805152e-38
31.02285739 -8.361206872 1.45629352 2.341805152e-38
25.55641345 3.735529102 -1.017987247 2.341805152e-38
33.11199951 -8.49559288 1.469542098 2.341805152e-38
45.11999893 2.363428593 -4.511999893 2.341805152e-38
47.4640007 -9.80922699 -5.514864922 2.341805152e-38
18.1457776 -7.683593609 -2.013024312 2.341805152e-38
29.22400093 -8.154888153 1.642110546 2.341805152e-38
44.38399887 -10.80312565 0.5857480168 2.341805152e-38
29.8560009 -8.160640717 1.677622914 2.341805152e-38
25.57999964 3.639540529 0.4361500859 2.341805152e-38
33.11199951 -8.369452286 1.772280383 2.341805152e-38
45.11999893 1.19245708 1.49325709 2.341805152e-38
47.4640007 -9.899634361 -3.887527585 2.341805152e-38
29.95200048 -8.227500779 1.878817984 2.341805152e-38
29.8560009 -8.160640717 1.791360021 2.341805152e-38
31.95199966 -8.46728003 1.833436176 2.341805152e-38
18.10539105 -7.678778586 -1.527742578 2.341805152e-38
29.22400093 -8.154888153 1.753440022 2.341805152e-38
30.94239998 -8.339713287 1.856275773 2.341805152e-38
30.52799988 -8.286170959 1.860754281 2.341805152e-38
31.58399963 -8.452480316 1.864959985 2.341805152e-38
61.27999878 -11.14712334 0.8754285574 2.341805152e-38
32.32799911 -8.128182411 1.93967998 2.341805152e-38
45.87200165 1.354316235 -4.587200165 2.341805152e-38
31.58399963 -7.880959988 1.955199957 2.341805152e-38
45.11999893 -9.668571472 -4.340114117 2.341805152e-38
34.36000061 -8.148228645 -7.068342924 2.341805152e-38
46.65599823 -9.997714043 0.6220799983 2.341805152e-38
34.51428604 -8.302098547 -6.940108912 2.341805152e-38
47.4640007 3.57110095 1.853356242 2.341805152e-38
18.40800095 -7.713829041 1.875862956 2.341805152e-38
35.24000168 -8.412851334 -6.958501975 2.341805152e-38
42.99200058 -10.22800179 -2.448496819 2.341805152e-38
43.68000031 -9.554133097 -1.492977805 2.341805152e-38
35.70399857 -8.534955978 -6.902773094 2.341805152e-38
36.65599823 -8.692708015 -6.912274003 2.341805152e-38
21.10933304 -7.144144358 -4.058766506 2.341805152e-38
44.38399887 3.536629717 -0.05636063342 2.341805152e-38
34.52200031 -8.424818993 -6.525916249 2.341805152e-38
38.73600006 -9.210559845 -6.554377079 2.341805152e-38
35.24000168 -8.4911623 -6.443886042 2.341805152e-38
43.68000031 -9.609600067 -0.1248000028 2.341805152e-38
34.5280003 -8.304831505 -6.020778868 2.341805152e-38
34.36000061 -8.148228645 -6.152076244 2.341805152e-38
46.65599823 -9.959627288 -0.5268636601 2.341805152e-38
35.24000168 -8.457600594 -5.806209564 2.341805152e-38
43.68000031 -9.609600067 -0.4159999937 2.341805152e-38
34.36000061 -8.344571386 -4.955319813 2.341805152e-38
21.69844455 4.588101837 1.487830484 2.341805152e-38
47.4640007 3.60123682 0.2109511172 2.341805152e-38
34.36000061 -8.348207421 -4.559517569 2.341805152e-38
21.70822236 4.590180761 0.9922268929 2.341805152e-38
47.4640007 3.578962482 0.4933111421 2.341805152e-38
34.60300016 -8.390954256 -3.941714346 2.341805152e-38
21.7840004 4.398293495 -1.307039976 2.341805152e-38
47.4640007 3.57110095 0.9944838186 2.341805152e-38
35.24000168 -8.4911623 -4.094552755 2.341805152e-38
18.60711082 -7.703485515 -2.579807785 2.341805152e-38
35.24000168 -8.558285713 -3.389752626 2.341805152e-38
42.99200058 -10.2361908 -5.056678176 2.341805152e-38
18.63692284 -7.708353198 -1.464260498 2.341805152e-38
35.24000168 -8.558285904 -2.503718281 2.341805152e-38
42.99200058 -10.28883403 -4.035983716 2.341805152e-38
25.0634587 7.607438339 -1.426101888 2.341805152e-38
34.6349092 -8.501030835 -2.413825837 2.341805152e-38
61.27999878 -11.41947937 0.4863491952 2.341805152e-38
34.67418185 -8.474645311 -2.068289502 2.341805152e-38
61.27999878 -11.26384735 0.8754285574 2.341805152e-38
34.53280029 -8.399626541 -1.361677694 2.341805152e-38
34.79199982 -8.449485779 -1.226003766 2.341805152e-38
34.36000061 -8.475466728 -0.04363174736 2.341805152e-38
43.68000031 2.021759939 -5.474560213 2.341805152e-38
43.68000031 1.636869591 -5.460452391 2.341805152e-38
55.11199951 -10.65498638 -5.406224728 2.341805152e-38
44.38399887 1.431157555 -5.392504896 2.341805152e-38
31.08320045 3.422058725 -3.528978372 2.341805152e-38
45.11999893 2.879085541 -5.37142849 2.341805152e-38
44.38399887 2.958933234 -5.368350347 2.341805152e-38
45.87200165 2.839695454 -5.373577118 2.341805152e-38
45.87200165 2.490194321 -5.286201954 2.341805152e-38
43.68000031 1.572480059 -4.991999865 2.341805152e-38
45.11999893 1.418057084 -4.98468558 2.341805152e-38
44.38399887 2.99470056 -4.984664514 2.341805152e-38
44.38399887 1.467389396 -5.018109253 2.341805152e-38
29.5359993 -7.39806456 -7.31367588 2.341805152e-38
45.87200165 1.354316235 -5.155139208 2.341805152e-38
47.4640007 1.230548143 -4.997532262 2.341805152e-38
21.76329444 5.899837915 0.886495485 2.341805152e-38
46.65599823 1.377462864 -5.021074136 2.341805152e-38
31.58399963 3.211875545 -1.480604437 2.341805152e-38
30.52799988 3.1759382 1.48620907 2.341805152e-38
51 -10.32142878 -4.978571534 2.341805152e-38
45.11999893 2.915918248 -4.880326475 2.341805152e-38
45.87200165 2.839695454 -4.936701139 2.341805152e-38
47.4640007 1.220502853 -4.655992349 2.341805152e-38
43.68000031 2.010666609 -4.50666666 2.341805152e-38
43.68000031 1.64320004 -4.472000003 2.341805152e-38
43.68000031 3.965866725 -4.50666666 2.341805152e-38
44.38399887 2.212154865 -4.522940848 2.341805152e-38
44.38399887 1.479466653 -4.463762188 2.341805152e-38
44.38399887 3.064609438 -4.480670393 2.341805152e-38
31.09200048 3.375577122 -4.530590564 2.341805152e-38
24.07999992 -7.682666779 0.1146666631 2.341805152e-38
45.11999893 2.954285592 -4.544228494 2.341805152e-38
45.11999893 1.418057084 -4.597942829 2.341805152e-38
45.87200165 1.252378424 -4.470699946 2.341805152e-38
31.08320045 3.396375863 -4.043454568 2.341805152e-38
45.11999893 2.98958356 -4.070008074 2.341805152e-38
43.68000031 3.577600002 -4.492799997 2.341805152e-38
45.87200165 1.354316235 -3.975573381 2.341805152e-38
25.60752902 3.711254134 -0.5205620054 2.341805152e-38
33.11199951 -8.535537402 -0.946057121 2.341805152e-38
42.32799911 -10.31996965 1.97530663 2.341805152e-38
45.87200165 1.266940951 -4.062948656 2.341805152e-38
42.32799911 -9.957158089 -4.797173023 2.341805152e-38
29.5359993 3.361478031 -0.675108552 2.341805152e-38
46.65599823 2.659709283 -3.980042389 2.341805152e-38
43.68000031 1.978311062 -4.035200066 2.341805152e-38
43.68000031 3.93536005 -3.968640041 2.341805152e-38
43.68000031 1.615466694 -4.007466733 2.341805152e-38
44.38399887 3.054041803 -4.047398001 2.341805152e-38
44.38399887 4.212957541 -3.87479353 2.341805152e-38
30.87199974 3.38121891 -5.380548636 2.341805152e-38
45.11999893 2.993676066 -3.495009462 2.341805152e-38
29.5359993 -7.623100758 -7.229287624 2.341805152e-38
45.87200165 1.354316235 -3.538697243 2.341805152e-38
45.87200165 1.09219048 -3.591122389 2.341805152e-38
42.32799911 -10.11840725 1.370620906 2.341805152e-38
43.68000031 1.562971473 -3.518171447 2.341805152e-38
43.68000031 1.982933283 -3.494400024 2.341805152e-38
29.5359993 3.359915283 -1.040792339 2.341805152e-38
46.65599823 2.642533036 -3.510308448 2.341805152e-38
45.11999893 1.418057084 -3.523657084 2.341805152e-38
45.11999893 4.340114117 -3.566628456 2.341805152e-38
44.38399887 4.136468002 -3.170285634 2.341805152e-38
19.38390987 -6.839076053 -7.070421503 2.341805152e-38
44.38399887 3.071654518 -3.043474197 2.341805152e-38
29.5359993 3.347413301 -1.518994272 2.341805152e-38
46.65599823 2.663941122 -3.006719873 2.341805152e-38
18.97687513 -7.333959676 -7.857090853 2.341805152e-38
42.99200058 1.883459032 -3.021723461 2.341805152e-38
45.11999893 1.33211422 -3.007999897 2.341805152e-38
31.1066672 3.367271105 -4.809115092 2.341805152e-38
45.11999893 2.941589486 -2.965028459 2.341805152e-38
43.68000031 2.056228501 -3.013028588 2.341805152e-38
43.68000031 1.625600026 -2.966399981 2.341805152e-38
24.73600006 3.788570057 -1.972455079 2.341805152e-38
45.87200165 2.854257981 -2.985320767 2.341805152e-38
45.87200165 1.266940951 -3.014445829 2.341805152e-38
45.11999893 2.363428593 -3.050971349 2.341805152e-38
48.30400085 1.012083799 -2.944243908 2.341805152e-38
22.31200027 4.237155151 -4.003410316 2.341805152e-38
28.6079998 3.490857139 -1.49851428 2.341805152e-38
45.11999893 2.277485609 -2.836114168 2.341805152e-38
19.31999969 -6.854707608 -7.335938234 2.341805152e-38
44.38399887 3.128015161 -2.536228502 2.341805152e-38
44.38399887 -10.74726808 -0.5072456971 2.341805152e-38
42.99200058 3.95116961 -2.640937179 2.341805152e-38
28.6079998 3.509247971 -1.035337132 2.341805152e-38
22.31200027 4.231586308 -3.524490028 2.341805152e-38
45.11999893 2.277485609 -2.49234283 2.341805152e-38
31.22400093 3.360297203 -6.304274559 2.341805152e-38
45.11999893 2.977306059 -2.523036718 2.341805152e-38
43.68000031 1.662191329 -2.526747869 2.341805152e-38
43.68000031 1.94479996 -2.506400049 2.341805152e-38
42.99200058 3.807862997 -2.497630517 2.341805152e-38
42.32799911 3.926425886 -2.442930222 2.341805152e-38
45.11999893 1.418057084 -2.49234283 2.341805152e-38
43.68000031 3.577600002 -2.496000051 2.341805152e-38
25.0970902 -7.744054209 1.875291044 2.341805152e-38
48.30400085 2.806232452 -2.346194267 2.341805152e-38
43.68000031 -9.576319885 -3.086720085 2.341805152e-38
46.65599823 2.888228416 -2.043977082 2.341805152e-38
42.99200058 3.930697203 -2.170072377 2.341805152e-38
22.55733363 6.094138463 -0.6300952435 2.341805152e-38
19.43199968 -6.874976054 -6.04541181 2.341805152e-38
44.38399887 3.016574816 -2.032825578 2.341805152e-38
45.87200165 1.266940951 -2.009630561 2.341805152e-38
42.32799911 -10.11840725 1.169059038 2.341805152e-38
42.32799911 3.91030097 -2.217180967 2.341805152e-38
43.68000031 3.577600002 -1.996799986 2.341805152e-38
43.68000031 2.010666609 -2.06613332 2.341805152e-38
45.11999893 1.33211422 -2.10559996 2.341805152e-38
31.00000017 3.373611017 -6.100615068 2.341805152e-38
45.11999893 2.915918248 -2.007379549 2.341805152e-38
28.6079998 3.531463696 -2.491934923 2.341805152e-38
22.06666648 4.112945239 -1.010205963 2.341805152e-38
45.11999893 2.277485609 -2.019657135 2.341805152e-38
49.16799927 0.920924445 -1.982328892 2.341805152e-38
48.30400085 1.027418395 -1.916825414 2.341805152e-38
44.38399887 4.142506599 -1.81763041 2.341805152e-38
21.7840004 4.20402917 -1.357963649 2.341805152e-38
47.4640007 0.9944838285 -1.717744827 2.341805152e-38
45.11999893 2.893409371 -1.546971381 2.341805152e-38
44.38399887 4.15659682 -1.704909126 2.341805152e-38
46.65599823 2.888228416 -1.732937098 2.341805152e-38
43.68000031 1.644104382 -1.492173931 2.341805152e-38
31.58399963 -7.934178352 -7.08268305 2.341805152e-38
43.68000031 3.952000062 -1.677866697 2.341805152e-38
25.10085644 -7.77770773 1.002407315 2.341805152e-38
43.68000031 3.522688017 -1.545856023 2.341805152e-38
43.68000031 1.975999951 -1.476800015 2.341805152e-38
45.87200165 1.173324662 -1.45417365 2.341805152e-38
45.11999893 1.307559116 -1.467167292 2.341805152e-38
42.99200058 3.963453054 -1.449444628 2.341805152e-38
55.11199951 -10.48702621 1.522140956 2.341805152e-38
28.6079998 3.478369554 -1.98893712 2.341805152e-38
22.08104327 4.066189476 -0.5201602159 2.341805152e-38
45.11999893 2.255999923 -1.503999949 2.341805152e-38
45.11999893 2.900571287 -0.988342829 2.341805152e-38
43.68000031 1.584960032 -1.010880011 2.341805152e-38
43.68000031 2.140088903 -1.012266676 2.341805152e-38
42.99200058 3.193691492 -1.187398076 2.341805152e-38
46.65599823 0.9896726771 -0.5534088178 2.341805152e-38
31.58399963 -8.407359958 1.503999993 2.341805152e-38
45.87200165 2.635819753 -0.6844394008 2.341805152e-38
45.11999893 2.922057033 -0.6875428557 2.341805152e-38
44.38399887 1.31038475 -0.5072456996 2.341805152e-38
25.05279922 -7.713827634 -0.04523199908 2.341805152e-38
43.68000031 3.465936874 -0.4794947332 2.341805152e-38
43.68000031 2.098909096 -0.487854539 2.341805152e-38
42.99200058 3.681306416 -0.4987816567 2.341805152e-38
44.38399887 2.63284673 -0.4589365976 2.341805152e-38
21.74814842 4.162996584 1.491267466 2.341805152e-38
33.52000046 -8.33211422 -5.93782862 2.341805152e-38
47.4640007 1.039687634 -0.3164266646 2.341805152e-38
46.65599823 1.098161612 0.03173877512 2.341805152e-38
44.38399887 1.31038475 -0.084540952 2.341805152e-38
43.68000031 2.267200112 -0.1040000021 2.341805152e-38
42.99200058 3.766918182 -0.2047238052 2.341805152e-38
42.32799911 1.739634239 0.06511999781 2.341805152e-38
52.97600174 -10.54474735 -5.49941349 2.341805152e-38
45.11999893 -9.668571472 -2.019657111 2.341805152e-38
42.32799911 1.969104684 0.06511999781 2.341805152e-38
43.68000031 1.289600015 1.705600023 2.341805152e-38
45.11999893 3.136914194 -0.02148571424 2.341805152e-38
55.11199951 -10.75996208 -5.021315575 2.341805152e-38
45.11999893 3.910399914 -0.04297142848 2.341805152e-38
44.38399887 2.578499079 0.04227047414 2.341805152e-38
44.38399887 -9.559165955 -5.899750573 2.341805152e-38
22.10442091 -7.18946083 -6.387145369 2.341805152e-38
46.65599823 3.599177027 0.09775542468 2.341805152e-38
31.58399963 -8.332159996 -2.045439973 2.341805152e-38
45.87200165 2.635819753 0.1601879448 2.341805152e-38
46.65599823 3.125211318 0.1826742821 2.341805152e-38
21.70989488 4.144692534 0.9861124953 2.341805152e-38
47.4640007 0.9794158936 0.1657473048 2.341805152e-38
46.65599823 -9.908844948 1.999542832 2.341805152e-38
46.65599823 2.710491339 0.2221714258 2.341805152e-38
42.32799911 1.733432333 0.4837485701 2.341805152e-38
43.68000031 1.497600019 0.4991999964 2.341805152e-38
44.38399887 1.394925714 0.5072456996 2.341805152e-38
31.95199966 3.126731396 -1.909512386 2.341805152e-38
43.68000031 1.289600015 1.871999979 2.341805152e-38
31.58399963 -8.347199917 -1.413759992 2.341805152e-38
45.87200165 2.402819157 0.3058133423 2.341805152e-38
46.65599823 0.9331199527 0.4887771308 2.341805152e-38
62.68000031 -11.43163824 -0.3880190477 2.341805152e-38
47.4640007 4.38476944 0.4972419083 2.341805152e-38
44.38399887 1.31038475 0.6340571245 2.341805152e-38
43.68000031 3.552640009 -0.1664000042 2.341805152e-38
45.87200165 2.286318858 0.9611276488 2.341805152e-38
46.65599823 0.9726170997 0.9676799575 2.341805152e-38
42.32799911 1.720702102 0.9568886098 2.341805152e-38
46.65599823 2.888228416 -3.688045502 2.341805152e-38
47.4640007 2.635382187 0.9718819141 2.341805152e-38
18.75709066 -7.686256365 -3.883039973 2.341805152e-38
43.68000031 1.436799994 0.9888000121 2.341805152e-38
48.30400085 2.806232452 1.058087587 2.341805152e-38
43.68000031 2.038399935 1.164800048 2.341805152e-38
47.4640007 0.8890082836 1.190366983 2.341805152e-38
46.65599823 4.310125351 1.199725628 2.341805152e-38
23.64399967 3.810027385 -0.02270856947 2.341805152e-38
46.65599823 1.012114247 1.495954249 2.341805152e-38
21.7840004 4.233868314 -0.4722189094 2.341805152e-38
47.4640007 0.9234492779 1.3884027 2.341805152e-38
21.7840004 4.688746929 -2.157653332 2.341805152e-38
47.4640007 3.545270205 1.48311548 2.341805152e-38
24.95999908 -7.678171158 -1.307428479 2.341805152e-38
43.68000031 3.411200047 -0.9984000127 2.341805152e-38
45.87200165 2.315443993 1.834880054 2.341805152e-38
20.37866592 -7.148642381 -1.235626618 2.341805152e-38
46.65599823 2.42166841 1.932891369 2.341805152e-38
31.03961935 -8.362892514 0.4826575986 2.341805152e-38
43.68000031 -10.25856018 -5.907200098 2.341805152e-38
43.68000031 -9.56799984 -5.907200098 2.341805152e-38
45.11999893 -9.58262825 -5.887085597 2.341805152e-38
45.11999893 -9.539656639 -5.500342766 2.341805152e-38
44.38399887 -9.553127289 -5.495161772 2.341805152e-38
43.68000031 -10.3143531 -5.523011965 2.341805152e-38
42.99200058 -10.19524574 -5.28187418 2.341805152e-38
43.68000031 -10.44159985 -5.116799831 2.341805152e-38
46.65599823 -9.642239571 -4.843337059 2.341805152e-38
46.65599823 -9.642239571 -4.710034132 2.341805152e-38
42.32799911 -9.957158089 -4.716548443 2.341805152e-38
42.99200058 -10.19524574 -4.667702913 2.341805152e-38
46.65599823 1.061979377 -2.541641045 2.341805152e-38
43.68000031 -10.33240008 -4.497999996 2.341805152e-38
43.68000031 -9.900800228 -4.492799997 2.341805152e-38
43.68000031 -9.56799984 -4.617599964 2.341805152e-38
44.38399887 -9.823008244 -4.451406075 2.341805152e-38
46.65599823 -9.731108665 -4.443428278 2.341805152e-38
44.38399887 -9.67993927 -4.015695143 2.341805152e-38
45.87200165 -9.742339134 -3.931885839 2.341805152e-38
42.32799911 -10.07809496 -3.869988561 2.341805152e-38
44.38399887 -9.764480019 -3.499995327 2.341805152e-38
42.99200058 -10.28575546 -3.527714541 2.341805152e-38
43.68000031 -10.6079998 -3.619199991 2.341805152e-38
42.99200058 -10.25193875 -3.070857195 2.341805152e-38
44.38399887 -9.716170856 -2.977049146 2.341805152e-38
43.68000031 -10.35840024 -2.90737772 2.341805152e-38
45.87200165 -9.742339134 -2.927070618 2.341805152e-38
45.87200165 -9.742339134 -2.533882022 2.341805152e-38
25.90399933 3.873264551 -7.351801634 2.341805152e-38
44.38399887 -9.67993927 -2.705310345 2.341805152e-38
42.99200058 -9.898396432 -2.420859128 2.341805152e-38
46.65599823 -9.819976807 -2.532754183 2.341805152e-38
52.97600174 -10.52792946 -4.961244663 2.341805152e-38
45.11999893 -9.668571472 -2.578285694 2.341805152e-38
43.68000031 -10.34964225 -2.511326363 2.341805152e-38
42.99200058 -10.35220091 1.849338402 2.341805152e-38
43.68000031 -9.52639993 -2.496000051 2.341805152e-38
46.65599823 -9.870758602 -2.037629332 2.341805152e-38
42.99200058 -9.802176285 -2.030860186 2.341805152e-38
44.38399887 -10.74515467 -2.06279918 2.341805152e-38
43.68000031 -10.31085727 -2.038399992 2.341805152e-38
43.68000031 -10.69120026 -2.079999924 2.341805152e-38
45.87200165 -9.742339134 -1.834880054 2.341805152e-38
42.99200058 -9.886405454 -1.493898916 2.341805152e-38
42.99200058 -9.551048215 -1.558630641 2.341805152e-38
46.65599823 -9.864410877 -1.510765672 2.341805152e-38
45.87200165 -9.779785837 -1.51658455 2.341805152e-38
24.73600006 7.373683929 -0.3533714414 2.341805152e-38
43.68000031 -9.56799984 -4.991999865 2.341805152e-38
42.99200058 -10.27713553 -1.351177176 2.341805152e-38
45.11999893 -9.754513741 -1.031314254 2.341805152e-38
43.68000031 -9.592959976 -1.073280025 2.341805152e-38
46.65599823 -9.908844948 -1.021988523 2.341805152e-38
24.73600006 7.373683929 -0.1806120674 2.341805152e-38
43.68000031 -9.571781679 -5.510109295 2.341805152e-38
42.99200058 -10.24983899 -1.023619046 2.341805152e-38
42.99200058 -9.945027987 -1.019069632 2.341805152e-38
45.87200165 -9.829714775 -1.004815269 2.341805152e-38
44.38399887 -9.704093661 -0.9601436513 2.341805152e-38
42.32799911 -10.11840725 -0.886872381 2.341805152e-38
25.42399979 3.801493406 -3.293013334 2.341805152e-38
42.32799911 -10.22590701 -0.8734349211 2.341805152e-38
55.11199951 -10.75996208 0.3149257153 2.341805152e-38
46.65599823 -11.41961098 -0.8442513943 2.341805152e-38
46.65599823 -11.41961098 -0.6665142775 2.341805152e-38
42.99200058 1.924403787 1.842514277 2.341805152e-38
45.11999893 -9.754513741 -0.5156571368 2.341805152e-38
44.38399887 -9.701074362 -0.5495161712 2.341805152e-38
43.68000031 -9.900800228 -0.5043999944 2.341805152e-38
42.99200058 -9.785798391 -0.4995261093 2.341805152e-38
24.58666611 7.634974321 -1.59376452 2.341805152e-38
43.68000031 -9.609600067 -3.993600051 2.341805152e-38
42.99200058 -10.2361908 -0.4913371652 2.341805152e-38
45.87200165 -9.829714775 -0.3495009691 2.341805152e-38
46.65599823 -9.908844948 0 2.341805152e-38
44.38399887 -10.7507906 -2.437597434 2.341805152e-38
42.99200058 3.99893856 -4.654054642 2.341805152e-38
45.87200165 -9.829714775 0 2.341805152e-38
42.99200058 1.924403787 1.474011461 2.341805152e-38
18.99691521 -6.993494791 -4.0181458 2.341805152e-38
45.11999893 -9.754513741 0 2.341805152e-38
44.38399887 -9.708119392 0.04227047579 2.341805152e-38
42.99200058 -9.847215533 -0.0511809513 2.341805152e-38
43.68000031 -9.876716011 0.4050526305 2.341805152e-38
46.65599823 1.170102803 -3.522157621 2.341805152e-38
43.68000031 -10.45824006 0.4187733352 2.341805152e-38
44.38399887 -9.844324165 0.5401227375 2.341805152e-38
52.97600174 -10.5851099 -0.01009066701 2.341805152e-38
19.00268405 -6.995188212 -4.507426963 2.341805152e-38
42.99200058 1.957159591 0.9499184847 2.341805152e-38
45.11999893 -9.792710728 0.5777269801 2.341805152e-38
42.99200058 4.012586832 -4.995261033 2.341805152e-38
45.87200165 -9.829714775 0.3931885858 2.341805152e-38
46.65599823 -9.997714043 0.7998171151 2.341805152e-38
46.65599823 1.117204841 -2.107454641 2.341805152e-38
43.68000031 -10.33621349 0.8846933444 2.341805152e-38
43.68000031 -9.933155731 1.003022234 2.341805152e-38
44.38399887 -9.810001887 0.9982335338 2.341805152e-38
52.97600174 -10.54474735 -0.5045333356 2.341805152e-38
42.99200058 2.0165295 0.5425181091 2.341805152e-38
18.98277433 -7.002321982 -3.005634 2.341805152e-38
45.11999893 -9.806079674 0.9539656997 2.341805152e-38
43.68000031 -9.609600067 -3.519360018 2.341805152e-38
42.99200058 -10.33855259 1.038973339 2.341805152e-38
45.87200165 -9.829714775 1.048502892 2.341805152e-38
42.99200058 -9.961275918 1.152302572 2.341805152e-38
33.11199951 -8.490862608 0 2.341805152e-38
42.32799911 -10.19903183 1.169059038 2.341805152e-38
52.97600174 -10.64565372 -1.059520018 2.341805152e-38
42.99200058 2.10078123 -0.06614153775 2.341805152e-38
18.99876144 -6.991310363 -3.52096321 2.341805152e-38
45.11999893 -9.754513741 1.461028516 2.341805152e-38
25.5139997 3.63266474 1.834363788 2.341805152e-38
33.11199951 -8.334577897 -1.54893669 2.341805152e-38
42.32799911 -10.19903183 1.370620906 2.341805152e-38
45.87200165 -9.829714775 1.4853791 2.341805152e-38
43.68000031 -9.502628463 -1.978971413 2.341805152e-38
42.99200058 -10.38177204 1.469462044 2.341805152e-38
44.38399887 -9.740325383 1.533814371 2.341805152e-38
